2.654446363449096680e-01,2.676052749156951904e-01,2.691975533962249756e-01,2.704720795154571533e-01,2.712104320526123047e-01,2.713354825973510742e-01,2.713381350040435791e-01,2.711476087570190430e-01,2.708971798419952393e-01,2.705743610858917236e-01,2.699632942676544189e-01,2.691974341869354248e-01,2.682572603225708008e-01,2.671636343002319336e-01,2.659500539302825928e-01,2.645530402660369873e-01,2.628740370273590088e-01,2.609923183917999268e-01,2.589428126811981201e-01,2.566277682781219482e-01,2.541369497776031494e-01,2.514202892780303955e-01,2.487830221652984619e-01,2.462367713451385498e-01,2.435831725597381592e-01,2.408257424831390381e-01,2.373017817735671997e-01,2.329704016447067261e-01,2.284150570631027222e-01,2.240811586380004883e-01,2.211516946554183960e-01,2.189290523529052734e-01,2.173920273780822754e-01,2.158170640468597412e-01,2.143252491950988770e-01,2.130957841873168945e-01,2.117644250392913818e-01,2.106606662273406982e-01,2.094545215368270874e-01,2.083833813667297363e-01,2.073729336261749268e-01,2.062966823577880859e-01,2.053452879190444946e-01,2.044441848993301392e-01,2.035449445247650146e-01,2.026701122522354126e-01,2.017983049154281616e-01,2.009055316448211670e-01,2.000156790018081665e-01,1.991356909275054932e-01,1.982442736625671387e-01,1.973667442798614502e-01,1.965171992778778076e-01,1.956796795129776001e-01,1.948477029800415039e-01,1.939729005098342896e-01,1.930577754974365234e-01,1.921181976795196533e-01,1.911610066890716553e-01,1.902022659778594971e-01,1.892407536506652832e-01,1.882876008749008179e-01,1.873578727245330811e-01,1.864501684904098511e-01,1.855639070272445679e-01,1.847211867570877075e-01,1.839143186807632446e-01,1.831320524215698242e-01,1.823929995298385620e-01,1.816253960132598877e-01,1.807808578014373779e-01,1.798210591077804565e-01,1.786734163761138916e-01,1.776324808597564697e-01,1.767717003822326660e-01,1.760226190090179443e-01,1.753620803356170654e-01,1.746939718723297119e-01,1.739889234304428101e-01,1.732645332813262939e-01,1.725603640079498291e-01,1.718316376209259033e-01,1.711564809083938599e-01,1.705581098794937134e-01,1.700179129838943481e-01,1.695326566696166992e-01,1.690698713064193726e-01,1.685690581798553467e-01,1.679860800504684448e-01,1.673016101121902466e-01,1.664229035377502441e-01,1.654334813356399536e-01,1.644385904073715210e-01,1.635739654302597046e-01,1.628632098436355591e-01,1.623339951038360596e-01,1.619305461645126343e-01,1.615848988294601440e-01,1.612507998943328857e-01,1.609245389699935913e-01,1.605958491563796997e-01,1.602934598922729492e-01,1.600328981876373291e-01,1.598089188337326050e-01,1.596127301454544067e-01,1.594434380531311035e-01,1.592784523963928223e-01,1.591197699308395386e-01,1.589751392602920532e-01,1.588397175073623657e-01,1.587254703044891357e-01,1.586177498102188110e-01,1.585175395011901855e-01,1.584350168704986572e-01,1.583560109138488770e-01,1.582959145307540894e-01,1.582395583391189575e-01,1.582050472497940063e-01,1.581681966781616211e-01
2.655522227287292480e-01,2.676548957824707031e-01,2.690676450729370117e-01,2.704328596591949463e-01,2.712787389755249023e-01,2.714598774909973145e-01,2.715334296226501465e-01,2.713316082954406738e-01,2.710627913475036621e-01,2.707411944866180420e-01,2.701500356197357178e-01,2.693561911582946777e-01,2.683728635311126709e-01,2.672419250011444092e-01,2.660166025161743164e-01,2.646412253379821777e-01,2.630442976951599121e-01,2.612307965755462646e-01,2.591756582260131836e-01,2.569908797740936279e-01,2.546025216579437256e-01,2.521392405033111572e-01,2.495325952768325806e-01,2.468922585248947144e-01,2.441647499799728394e-01,2.415740042924880981e-01,2.387036532163619995e-01,2.351226210594177246e-01,2.302128970623016357e-01,2.256302386522293091e-01,2.222321629524230957e-01,2.198128849267959595e-01,2.179993838071823120e-01,2.165086120367050171e-01,2.152071148157119751e-01,2.140935212373733521e-01,2.126981317996978760e-01,2.111475765705108643e-01,2.096997797489166260e-01,2.085258811712265015e-01,2.074121087789535522e-01,2.063217163085937500e-01,2.053050845861434937e-01,2.043532729148864746e-01,2.034706920385360718e-01,2.026189416646957397e-01,2.017498016357421875e-01,2.008711695671081543e-01,1.999561935663223267e-01,1.990676075220108032e-01,1.981774568557739258e-01,1.972964107990264893e-01,1.964614987373352051e-01,1.956345885992050171e-01,1.947994083166122437e-01,1.939012557268142700e-01,1.929648220539093018e-01,1.919954568147659302e-01,1.910163164138793945e-01,1.900518238544464111e-01,1.890794783830642700e-01,1.881245970726013184e-01,1.871912628412246704e-01,1.862831413745880127e-01,1.854041665792465210e-01,1.845678985118865967e-01,1.837742477655410767e-01,1.830056011676788330e-01,1.822653710842132568e-01,1.814884096384048462e-01,1.806258410215377808e-01,1.795945316553115845e-01,1.784691214561462402e-01,1.775055229663848877e-01,1.766995638608932495e-01,1.759911924600601196e-01,1.753415912389755249e-01,1.746740788221359253e-01,1.739600151777267456e-01,1.732379794120788574e-01,1.725014448165893555e-01,1.717470884323120117e-01,1.710836589336395264e-01,1.704775691032409668e-01,1.699337959289550781e-01,1.694462448358535767e-01,1.689698398113250732e-01,1.684387028217315674e-01,1.678124815225601196e-01,1.670450568199157715e-01,1.660812944173812866e-01,1.650489568710327148e-01,1.640649586915969849e-01,1.632376462221145630e-01,1.625752151012420654e-01,1.620640158653259277e-01,1.616470217704772949e-01,1.612713634967803955e-01,1.609212905168533325e-01,1.605913937091827393e-01,1.602603942155838013e-01,1.599568128585815430e-01,1.596915423870086670e-01,1.594628691673278809e-01,1.592617481946945190e-01,1.590872108936309814e-01,1.589182764291763306e-01,1.587585359811782837e-01,1.586144119501113892e-01,1.584852486848831177e-01,1.583771258592605591e-01,1.582763195037841797e-01,1.581788957118988037e-01,1.580873876810073853e-01,1.579972058534622192e-01,1.579272001981735229e-01,1.578655391931533813e-01,1.578190773725509644e-01,1.577843427658081055e-01
2.655982971191406250e-01,2.675241529941558838e-01,2.689377665519714355e-01,2.702054083347320557e-01,2.712794244289398193e-01,2.716633677482604980e-01,2.717677950859069824e-01,2.715530693531036377e-01,2.712604701519012451e-01,2.709276378154754639e-01,2.703500688076019287e-01,2.695628702640533447e-01,2.685771286487579346e-01,2.674604356288909912e-01,2.661959528923034668e-01,2.647866010665893555e-01,2.631819844245910645e-01,2.613542675971984863e-01,2.592968642711639404e-01,2.571437656879425049e-01,2.548520565032958984e-01,2.524023950099945068e-01,2.498563379049301147e-01,2.474047690629959106e-01,2.448373138904571533e-01,2.422773987054824829e-01,2.397076636552810669e-01,2.367701381444931030e-01,2.331325262784957886e-01,2.286041826009750366e-01,2.246867567300796509e-01,2.210070043802261353e-01,2.188097387552261353e-01,2.171733230352401733e-01,2.155380398035049438e-01,2.143801003694534302e-01,2.132988125085830688e-01,2.120150625705718994e-01,2.104555964469909668e-01,2.089697867631912231e-01,2.076689600944519043e-01,2.065127193927764893e-01,2.053804695606231689e-01,2.044318765401840210e-01,2.035352885723114014e-01,2.026229202747344971e-01,2.017321139574050903e-01,2.008424103260040283e-01,1.999165415763854980e-01,1.990236341953277588e-01,1.981337070465087891e-01,1.972559690475463867e-01,1.964304447174072266e-01,1.955980807542800903e-01,1.947477608919143677e-01,1.938238441944122314e-01,1.928641051054000854e-01,1.918756365776062012e-01,1.908795386552810669e-01,1.899008303880691528e-01,1.889189481735229492e-01,1.879597753286361694e-01,1.870281100273132324e-01,1.861256957054138184e-01,1.852573603391647339e-01,1.844306737184524536e-01,1.836466640233993530e-01,1.828911751508712769e-01,1.821511238813400269e-01,1.813638806343078613e-01,1.804674118757247925e-01,1.794174015522003174e-01,1.783384233713150024e-01,1.774260997772216797e-01,1.766631901264190674e-01,1.759802848100662231e-01,1.753291636705398560e-01,1.746630519628524780e-01,1.739516705274581909e-01,1.732309609651565552e-01,1.724698096513748169e-01,1.717134118080139160e-01,1.710332334041595459e-01,1.704102754592895508e-01,1.698698103427886963e-01,1.693852394819259644e-01,1.688982993364334106e-01,1.683305650949478149e-01,1.676527857780456543e-01,1.667997986078262329e-01,1.657638549804687500e-01,1.647055000066757202e-01,1.637573987245559692e-01,1.629693359136581421e-01,1.623422056436538696e-01,1.618346869945526123e-01,1.613983064889907837e-01,1.610110998153686523e-01,1.606646925210952759e-01,1.603344827890396118e-01,1.600005179643630981e-01,1.596926450729370117e-01,1.594213545322418213e-01,1.591864675283432007e-01,1.589792072772979736e-01,1.587947309017181396e-01,1.586195975542068481e-01,1.584562659263610840e-01,1.583150327205657959e-01,1.581924408674240112e-01,1.580931693315505981e-01,1.580049395561218262e-01,1.579088717699050903e-01,1.578199267387390137e-01,1.577242314815521240e-01,1.576401293277740479e-01,1.575683951377868652e-01,1.575137078762054443e-01,1.574804782867431641e-01
2.651738226413726807e-01,2.671335339546203613e-01,2.685139477252960205e-01,2.700111567974090576e-01,2.716365456581115723e-01,2.720324993133544922e-01,2.720968425273895264e-01,2.718339562416076660e-01,2.714499235153198242e-01,2.710556089878082275e-01,2.705690860748291016e-01,2.698476016521453857e-01,2.688749134540557861e-01,2.677675783634185791e-01,2.664741277694702148e-01,2.650318443775177002e-01,2.633712589740753174e-01,2.615227997303009033e-01,2.595601379871368408e-01,2.574292123317718506e-01,2.551506459712982178e-01,2.526753544807434082e-01,2.501155436038970947e-01,2.476515769958496094e-01,2.452208995819091797e-01,2.426675856113433838e-01,2.401384115219116211e-01,2.375582605600357056e-01,2.348355054855346680e-01,2.317060977220535278e-01,2.285845577716827393e-01,2.249172180891036987e-01,2.212537527084350586e-01,2.179278135299682617e-01,2.160194814205169678e-01,2.146532684564590454e-01,2.133019417524337769e-01,2.121066153049468994e-01,2.108916640281677246e-01,2.095651775598526001e-01,2.082324922084808350e-01,2.069665789604187012e-01,2.057420313358306885e-01,2.047203928232192993e-01,2.037219703197479248e-01,2.027689069509506226e-01,2.018546164035797119e-01,2.008746564388275146e-01,1.999362707138061523e-01,1.990339010953903198e-01,1.981530934572219849e-01,1.972876638174057007e-01,1.964527070522308350e-01,1.955738365650177002e-01,1.946825534105300903e-01,1.937588304281234741e-01,1.927922964096069336e-01,1.917993277311325073e-01,1.907917261123657227e-01,1.897943019866943359e-01,1.888022273778915405e-01,1.878373771905899048e-01,1.869081854820251465e-01,1.860069036483764648e-01,1.851409077644348145e-01,1.843219399452209473e-01,1.835407018661499023e-01,1.827920973300933838e-01,1.820468455553054810e-01,1.812470257282257080e-01,1.803306341171264648e-01,1.792885661125183105e-01,1.782632619142532349e-01,1.773989498615264893e-01,1.766560226678848267e-01,1.759820580482482910e-01,1.753331273794174194e-01,1.746648997068405151e-01,1.739679276943206787e-01,1.732462346553802490e-01,1.724617481231689453e-01,1.717013120651245117e-01,1.710041165351867676e-01,1.703763157129287720e-01,1.698314249515533447e-01,1.693377047777175903e-01,1.688284277915954590e-01,1.682214587926864624e-01,1.674954444169998169e-01,1.665414124727249146e-01,1.654558777809143066e-01,1.644204705953598022e-01,1.635195761919021606e-01,1.627782881259918213e-01,1.621730327606201172e-01,1.616640388965606689e-01,1.612208783626556396e-01,1.608332097530364990e-01,1.604847162961959839e-01,1.601471900939941406e-01,1.598111689090728760e-01,1.594973504543304443e-01,1.592164039611816406e-01,1.589720547199249268e-01,1.587532162666320801e-01,1.585643738508224487e-01,1.583874225616455078e-01,1.582207083702087402e-01,1.580835282802581787e-01,1.579670161008834839e-01,1.578723043203353882e-01,1.577907502651214600e-01,1.576983034610748291e-01,1.576105505228042603e-01,1.575200408697128296e-01,1.574287116527557373e-01,1.573348045349121094e-01,1.572791337966918945e-01,1.572387516498565674e-01
2.652410268783569336e-01,2.669405341148376465e-01,2.681738734245300293e-01,2.701357901096343994e-01,2.720841765403747559e-01,2.727389931678771973e-01,2.725652456283569336e-01,2.723055183887481689e-01,2.717634141445159912e-01,2.714554667472839355e-01,2.709662616252899170e-01,2.702583968639373779e-01,2.692765593528747559e-01,2.681538164615631104e-01,2.668249607086181641e-01,2.653110325336456299e-01,2.636374235153198242e-01,2.617869377136230469e-01,2.598244845867156982e-01,2.576847374439239502e-01,2.554191052913665771e-01,2.529658377170562744e-01,2.504256069660186768e-01,2.479120492935180664e-01,2.454473525285720825e-01,2.431030124425888062e-01,2.404943704605102539e-01,2.378839105367660522e-01,2.355496287345886230e-01,2.331101447343826294e-01,2.305109947919845581e-01,2.281742393970489502e-01,2.257470190525054932e-01,2.221071720123291016e-01,2.184169888496398926e-01,2.148331254720687866e-01,2.135353237390518188e-01,2.125809192657470703e-01,2.111830413341522217e-01,2.099078744649887085e-01,2.088045328855514526e-01,2.076267749071121216e-01,2.063956111669540405e-01,2.052874118089675903e-01,2.041604071855545044e-01,2.031039446592330933e-01,2.020843327045440674e-01,2.009994685649871826e-01,2.000152319669723511e-01,1.990549117326736450e-01,1.981723010540008545e-01,1.973183751106262207e-01,1.964628547430038452e-01,1.955495178699493408e-01,1.946281641721725464e-01,1.936934143304824829e-01,1.927170008420944214e-01,1.917071938514709473e-01,1.906944364309310913e-01,1.897005736827850342e-01,1.887174248695373535e-01,1.877631545066833496e-01,1.868389695882797241e-01,1.859339475631713867e-01,1.850626319646835327e-01,1.842418611049652100e-01,1.834615617990493774e-01,1.827094256877899170e-01,1.819521933794021606e-01,1.811427772045135498e-01,1.802233606576919556e-01,1.792145371437072754e-01,1.782385110855102539e-01,1.774007976055145264e-01,1.766702979803085327e-01,1.760024726390838623e-01,1.753509044647216797e-01,1.746926158666610718e-01,1.739997118711471558e-01,1.732662618160247803e-01,1.724709570407867432e-01,1.716933697462081909e-01,1.709910035133361816e-01,1.703607290983200073e-01,1.698026806116104126e-01,1.692954897880554199e-01,1.687594801187515259e-01,1.681249588727951050e-01,1.673225611448287964e-01,1.662781685590744019e-01,1.651822477579116821e-01,1.641813814640045166e-01,1.633354574441909790e-01,1.626289933919906616e-01,1.620470434427261353e-01,1.615460515022277832e-01,1.611102521419525146e-01,1.607183963060379028e-01,1.603590250015258789e-01,1.600107252597808838e-01,1.596721410751342773e-01,1.593550592660903931e-01,1.590647250413894653e-01,1.588081419467926025e-01,1.585806608200073242e-01,1.583886891603469849e-01,1.582110971212387085e-01,1.580465734004974365e-01,1.579109728336334229e-01,1.577979773283004761e-01,1.577079594135284424e-01,1.576294302940368652e-01,1.575432866811752319e-01,1.574524492025375366e-01,1.573600322008132935e-01,1.572497487068176270e-01,1.571495234966278076e-01,1.570792198181152344e-01,1.570251435041427612e-01
2.652022838592529297e-01,2.671893537044525146e-01,2.688256502151489258e-01,2.708473205566406250e-01,2.730417251586914062e-01,2.735791802406311035e-01,2.734676301479339600e-01,2.731870710849761963e-01,2.725793421268463135e-01,2.721511721611022949e-01,2.716602683067321777e-01,2.709775865077972412e-01,2.698528170585632324e-01,2.686348557472229004e-01,2.672995328903198242e-01,2.657458782196044922e-01,2.640213966369628906e-01,2.621348798274993896e-01,2.601780891418457031e-01,2.580122947692871094e-01,2.557468712329864502e-01,2.532953619956970215e-01,2.508226037025451660e-01,2.483217865228652954e-01,2.458411455154418945e-01,2.435216158628463745e-01,2.411577999591827393e-01,2.386926561594009399e-01,2.359644323587417603e-01,2.336557358503341675e-01,2.314770966768264771e-01,2.291020900011062622e-01,2.268955707550048828e-01,2.245700359344482422e-01,2.225028127431869507e-01,2.191189974546432495e-01,2.155443578958511353e-01,2.133529931306838989e-01,2.117737680673599243e-01,2.106404453516006470e-01,2.093881517648696899e-01,2.082432210445404053e-01,2.070874571800231934e-01,2.060074210166931152e-01,2.047096490859985352e-01,2.035591006278991699e-01,2.024442702531814575e-01,2.013403475284576416e-01,2.002517879009246826e-01,1.992173343896865845e-01,1.982410103082656860e-01,1.973208636045455933e-01,1.964540183544158936e-01,1.955284625291824341e-01,1.946003884077072144e-01,1.936628520488739014e-01,1.926526278257369995e-01,1.916197687387466431e-01,1.906115859746932983e-01,1.896278262138366699e-01,1.886686235666275024e-01,1.877284497022628784e-01,1.868072599172592163e-01,1.858935803174972534e-01,1.850107759237289429e-01,1.841830313205718994e-01,1.833949983119964600e-01,1.826343089342117310e-01,1.818608343601226807e-01,1.810356527566909790e-01,1.801245510578155518e-01,1.791663318872451782e-01,1.782299876213073730e-01,1.774184554815292358e-01,1.766986995935440063e-01,1.760205328464508057e-01,1.753667593002319336e-01,1.747189909219741821e-01,1.740299165248870850e-01,1.732833236455917358e-01,1.724847257137298584e-01,1.717035025358200073e-01,1.709911972284317017e-01,1.703445464372634888e-01,1.697699278593063354e-01,1.692399829626083374e-01,1.686705797910690308e-01,1.679997295141220093e-01,1.671075671911239624e-01,1.660067588090896606e-01,1.649240106344223022e-01,1.639653295278549194e-01,1.631716936826705933e-01,1.625088304281234741e-01,1.619561165571212769e-01,1.614718586206436157e-01,1.610449254512786865e-01,1.606487929821014404e-01,1.602712124586105347e-01,1.599103957414627075e-01,1.595738381147384644e-01,1.592545211315155029e-01,1.589588671922683716e-01,1.586980372667312622e-01,1.584694534540176392e-01,1.582722514867782593e-01,1.580894589424133301e-01,1.579238623380661011e-01,1.577856540679931641e-01,1.576756536960601807e-01,1.575804501771926880e-01,1.575038880109786987e-01,1.574177592992782593e-01,1.573194116353988647e-01,1.572169959545135498e-01,1.570847332477569580e-01,1.569833308458328247e-01,1.569031029939651489e-01,1.568396240472793579e-01
2.661164402961730957e-01,2.684977352619171143e-01,2.706347107887268066e-01,2.726280391216278076e-01,2.742438912391662598e-01,2.746826112270355225e-01,2.747033238410949707e-01,2.744673192501068115e-01,2.739053964614868164e-01,2.731691598892211914e-01,2.727103531360626221e-01,2.719496488571166992e-01,2.707718908786773682e-01,2.694335281848907471e-01,2.680105268955230713e-01,2.663477957248687744e-01,2.645310163497924805e-01,2.625816166400909424e-01,2.605847418308258057e-01,2.584407329559326172e-01,2.561571598052978516e-01,2.537431120872497559e-01,2.512588500976562500e-01,2.487822473049163818e-01,2.463136464357376099e-01,2.439801692962646484e-01,2.418021857738494873e-01,2.395543754100799561e-01,2.370892614126205444e-01,2.344355583190917969e-01,2.318355143070220947e-01,2.296858578920364380e-01,2.276196777820587158e-01,2.252830266952514648e-01,2.231695502996444702e-01,2.205861061811447144e-01,2.180524319410324097e-01,2.153401076793670654e-01,2.132335901260375977e-01,2.113607078790664673e-01,2.099714577198028564e-01,2.087916284799575806e-01,2.076232433319091797e-01,2.065121680498123169e-01,2.054491937160491943e-01,2.042898386716842651e-01,2.029941678047180176e-01,2.017946839332580566e-01,2.006002962589263916e-01,1.994799822568893433e-01,1.984142214059829712e-01,1.973752528429031372e-01,1.964678913354873657e-01,1.955507993698120117e-01,1.946110576391220093e-01,1.936490237712860107e-01,1.926337331533432007e-01,1.916016340255737305e-01,1.905899643898010254e-01,1.895976513624191284e-01,1.886445283889770508e-01,1.877079606056213379e-01,1.867860853672027588e-01,1.858697533607482910e-01,1.849799007177352905e-01,1.841483414173126221e-01,1.833479404449462891e-01,1.825744360685348511e-01,1.817896813154220581e-01,1.809550523757934570e-01,1.800683885812759399e-01,1.791339367628097534e-01,1.782317757606506348e-01,1.774529814720153809e-01,1.767369359731674194e-01,1.760539412498474121e-01,1.753993630409240723e-01,1.747538596391677856e-01,1.740666329860687256e-01,1.733129173517227173e-01,1.725109815597534180e-01,1.717269271612167358e-01,1.709965467453002930e-01,1.703288555145263672e-01,1.697385758161544800e-01,1.691787689924240112e-01,1.685760766267776489e-01,1.678597629070281982e-01,1.668944656848907471e-01,1.657627522945404053e-01,1.646986603736877441e-01,1.637925803661346436e-01,1.630548387765884399e-01,1.624353677034378052e-01,1.619156748056411743e-01,1.614535897970199585e-01,1.610245704650878906e-01,1.606213748455047607e-01,1.602244824171066284e-01,1.598514169454574585e-01,1.595063507556915283e-01,1.591793149709701538e-01,1.588830053806304932e-01,1.586180180311203003e-01,1.583870649337768555e-01,1.581847965717315674e-01,1.579965651035308838e-01,1.578297019004821777e-01,1.576893329620361328e-01,1.575722992420196533e-01,1.574739813804626465e-01,1.573920249938964844e-01,1.573007106781005859e-01,1.571888178586959839e-01,1.570806354284286499e-01,1.569683551788330078e-01,1.568649709224700928e-01,1.567993760108947754e-01,1.567378193140029907e-01
2.682594656944274902e-01,2.711128890514373779e-01,2.726781964302062988e-01,2.740165889263153076e-01,2.753791213035583496e-01,2.758072018623352051e-01,2.756931185722351074e-01,2.757170200347900391e-01,2.755171656608581543e-01,2.752053141593933105e-01,2.745288014411926270e-01,2.735539972782135010e-01,2.720556557178497314e-01,2.705673575401306152e-01,2.690658867359161377e-01,2.672095298767089844e-01,2.652162313461303711e-01,2.631330192089080811e-01,2.609942555427551270e-01,2.588593959808349609e-01,2.565815746784210205e-01,2.541691660881042480e-01,2.517118453979492188e-01,2.492154240608215332e-01,2.467835694551467896e-01,2.444528490304946899e-01,2.422759681940078735e-01,2.401020675897598267e-01,2.379052937030792236e-01,2.354904711246490479e-01,2.328936308622360229e-01,2.303997874259948730e-01,2.280293703079223633e-01,2.258543223142623901e-01,2.237749695777893066e-01,2.214799970388412476e-01,2.193585485219955444e-01,2.170262485742568970e-01,2.149402499198913574e-01,2.127625644207000732e-01,2.109054774045944214e-01,2.093677520751953125e-01,2.081135362386703491e-01,2.068750262260437012e-01,2.058290988206863403e-01,2.047332227230072021e-01,2.035078108310699463e-01,2.023099064826965332e-01,2.010384202003479004e-01,1.998334527015686035e-01,1.987020373344421387e-01,1.976484060287475586e-01,1.966348737478256226e-01,1.956961303949356079e-01,1.946710646152496338e-01,1.936322450637817383e-01,1.926249712705612183e-01,1.915913522243499756e-01,1.905832588672637939e-01,1.895878165960311890e-01,1.886281669139862061e-01,1.876933425664901733e-01,1.867764741182327271e-01,1.858743876218795776e-01,1.849937885999679565e-01,1.841636002063751221e-01,1.833515763282775879e-01,1.825578212738037109e-01,1.817577183246612549e-01,1.809150874614715576e-01,1.800403445959091187e-01,1.791259646415710449e-01,1.782553493976593018e-01,1.774846166372299194e-01,1.767599433660507202e-01,1.760830283164978027e-01,1.754401773214340210e-01,1.747973561286926270e-01,1.741090565919876099e-01,1.733475327491760254e-01,1.725492924451828003e-01,1.717541962862014771e-01,1.710053831338882446e-01,1.703260242938995361e-01,1.697154343128204346e-01,1.691269427537918091e-01,1.684926152229309082e-01,1.677395701408386230e-01,1.667182445526123047e-01,1.655570864677429199e-01,1.645242720842361450e-01,1.636715084314346313e-01,1.629975438117980957e-01,1.624278426170349121e-01,1.619330197572708130e-01,1.614832431077957153e-01,1.610533148050308228e-01,1.606274396181106567e-01,1.602063179016113281e-01,1.598221063613891602e-01,1.594658046960830688e-01,1.591354459524154663e-01,1.588392853736877441e-01,1.585611999034881592e-01,1.583165079355239868e-01,1.581006199121475220e-01,1.579019278287887573e-01,1.577353924512863159e-01,1.575872600078582764e-01,1.574601829051971436e-01,1.573631912469863892e-01,1.572699397802352905e-01,1.571684181690216064e-01,1.570567041635513306e-01,1.569608300924301147e-01,1.568726003170013428e-01,1.567985415458679199e-01,1.567513942718505859e-01,1.567351371049880981e-01
2.692727744579315186e-01,2.720365822315216064e-01,2.734561860561370850e-01,2.747661471366882324e-01,2.759781479835510254e-01,2.764500379562377930e-01,2.766093909740447998e-01,2.767602801322937012e-01,2.767091691493988037e-01,2.765043973922729492e-01,2.760630249977111816e-01,2.752105295658111572e-01,2.735526561737060547e-01,2.718465626239776611e-01,2.702709734439849854e-01,2.683750391006469727e-01,2.662683725357055664e-01,2.639241516590118408e-01,2.615715265274047852e-01,2.592797577381134033e-01,2.569858729839324951e-01,2.545956671237945557e-01,2.521806955337524414e-01,2.497013509273529053e-01,2.472863644361495972e-01,2.449264377355575562e-01,2.426828891038894653e-01,2.405077219009399414e-01,2.383555471897125244e-01,2.361743748188018799e-01,2.338856607675552368e-01,2.314576804637908936e-01,2.290158271789550781e-01,2.264957726001739502e-01,2.243944108486175537e-01,2.225716263055801392e-01,2.204900234937667847e-01,2.182934135198593140e-01,2.162683457136154175e-01,2.141258120536804199e-01,2.120652496814727783e-01,2.101305723190307617e-01,2.085525840520858765e-01,2.073532342910766602e-01,2.062622159719467163e-01,2.050053477287292480e-01,2.038630247116088867e-01,2.027122825384140015e-01,2.015517801046371460e-01,2.003408521413803101e-01,1.991027742624282837e-01,1.980653405189514160e-01,1.969406902790069580e-01,1.958812177181243896e-01,1.947607994079589844e-01,1.936512589454650879e-01,1.925978511571884155e-01,1.915352493524551392e-01,1.905205100774765015e-01,1.895439773797988892e-01,1.886103600263595581e-01,1.876997202634811401e-01,1.867955476045608521e-01,1.859067976474761963e-01,1.850374490022659302e-01,1.842056363821029663e-01,1.833899319171905518e-01,1.825893372297286987e-01,1.817865818738937378e-01,1.809414327144622803e-01,1.800681799650192261e-01,1.791714578866958618e-01,1.783146262168884277e-01,1.775343716144561768e-01,1.768064200878143311e-01,1.761341094970703125e-01,1.754938662052154541e-01,1.748530566692352295e-01,1.741656810045242310e-01,1.734047979116439819e-01,1.726018041372299194e-01,1.717834919691085815e-01,1.710251420736312866e-01,1.703359037637710571e-01,1.697021424770355225e-01,1.690871268510818481e-01,1.684223264455795288e-01,1.676365882158279419e-01,1.665477901697158813e-01,1.653777807950973511e-01,1.643871515989303589e-01,1.636136472225189209e-01,1.629993766546249390e-01,1.624673902988433838e-01,1.619917303323745728e-01,1.615514010190963745e-01,1.611109524965286255e-01,1.606734246015548706e-01,1.602390557527542114e-01,1.598372608423233032e-01,1.594761610031127930e-01,1.591441929340362549e-01,1.588448584079742432e-01,1.585581600666046143e-01,1.583006829023361206e-01,1.580657064914703369e-01,1.578503549098968506e-01,1.576773822307586670e-01,1.575229018926620483e-01,1.573865115642547607e-01,1.572785824537277222e-01,1.571701467037200928e-01,1.570609956979751587e-01,1.569739133119583130e-01,1.569139808416366577e-01,1.568522006273269653e-01,1.567830890417098999e-01,1.567252129316329956e-01,1.567278206348419189e-01
2.697278261184692383e-01,2.721787989139556885e-01,2.736761868000030518e-01,2.749127447605133057e-01,2.760946452617645264e-01,2.768435478210449219e-01,2.773242592811584473e-01,2.777359187602996826e-01,2.778969407081604004e-01,2.777153551578521729e-01,2.773902714252471924e-01,2.767260074615478516e-01,2.754239141941070557e-01,2.736408114433288574e-01,2.717722356319427490e-01,2.697148919105529785e-01,2.675882577896118164e-01,2.650789320468902588e-01,2.624590694904327393e-01,2.599422037601470947e-01,2.574795484542846680e-01,2.550684213638305664e-01,2.526502609252929688e-01,2.501784265041351318e-01,2.477323859930038452e-01,2.453284263610839844e-01,2.430871725082397461e-01,2.408885955810546875e-01,2.387411594390869141e-01,2.366235107183456421e-01,2.344538122415542603e-01,2.323841154575347900e-01,2.302516549825668335e-01,2.280295789241790771e-01,2.255718261003494263e-01,2.232063412666320801e-01,2.214952707290649414e-01,2.195703685283660889e-01,2.173815518617630005e-01,2.152669429779052734e-01,2.132853418588638306e-01,2.112679332494735718e-01,2.094308137893676758e-01,2.078074216842651367e-01,2.065122574567794800e-01,2.053271830081939697e-01,2.041382640600204468e-01,2.029411941766738892e-01,2.018275111913681030e-01,2.006867676973342896e-01,1.995364874601364136e-01,1.983986198902130127e-01,1.972761750221252441e-01,1.961342245340347290e-01,1.949514299631118774e-01,1.937924027442932129e-01,1.926613003015518188e-01,1.915296614170074463e-01,1.904966533184051514e-01,1.895382255315780640e-01,1.886296570301055908e-01,1.877501457929611206e-01,1.868569254875183105e-01,1.859555840492248535e-01,1.850821673870086670e-01,1.842650473117828369e-01,1.834699511528015137e-01,1.826738268136978149e-01,1.818766891956329346e-01,1.810337603092193604e-01,1.801610887050628662e-01,1.792685240507125854e-01,1.784115433692932129e-01,1.776282191276550293e-01,1.768956929445266724e-01,1.762270331382751465e-01,1.755830645561218262e-01,1.749343574047088623e-01,1.742405891418457031e-01,1.734746098518371582e-01,1.726674586534500122e-01,1.718252450227737427e-01,1.710537523031234741e-01,1.703537106513977051e-01,1.696996092796325684e-01,1.690575927495956421e-01,1.683681607246398926e-01,1.675172746181488037e-01,1.663675606250762939e-01,1.652276068925857544e-01,1.643153727054595947e-01,1.636101752519607544e-01,1.630306392908096313e-01,1.625213772058486938e-01,1.620621383190155029e-01,1.616392582654953003e-01,1.611857563257217407e-01,1.607407331466674805e-01,1.603059172630310059e-01,1.598957777023315430e-01,1.595271080732345581e-01,1.591840684413909912e-01,1.588743180036544800e-01,1.585765331983566284e-01,1.583091616630554199e-01,1.580661982297897339e-01,1.578438133001327515e-01,1.576585322618484497e-01,1.575051248073577881e-01,1.573676317930221558e-01,1.572684347629547119e-01,1.571731269359588623e-01,1.570828408002853394e-01,1.570126712322235107e-01,1.569401323795318604e-01,1.568464338779449463e-01,1.567773669958114624e-01,1.567471921443939209e-01,1.567287445068359375e-01
2.698437273502349854e-01,2.723584771156311035e-01,2.737937867641448975e-01,2.748857140541076660e-01,2.759558558464050293e-01,2.767021954059600830e-01,2.773108482360839844e-01,2.777783274650573730e-01,2.780607640743255615e-01,2.782383561134338379e-01,2.783051431179046631e-01,2.781029045581817627e-01,2.772220969200134277e-01,2.758986949920654297e-01,2.738923132419586182e-01,2.715925276279449463e-01,2.692230939865112305e-01,2.664881050586700439e-01,2.637421488761901855e-01,2.609995007514953613e-01,2.583153247833251953e-01,2.557057738304138184e-01,2.532047629356384277e-01,2.507098317146301270e-01,2.482101023197174072e-01,2.457971274852752686e-01,2.435558438301086426e-01,2.413222938776016235e-01,2.391614764928817749e-01,2.370190620422363281e-01,2.348287254571914673e-01,2.328276485204696655e-01,2.309218645095825195e-01,2.291419208049774170e-01,2.273391932249069214e-01,2.251359075307846069e-01,2.224192917346954346e-01,2.204254269599914551e-01,2.184785008430480957e-01,2.164527028799057007e-01,2.144942730665206909e-01,2.126341164112091064e-01,2.108387202024459839e-01,2.088967561721801758e-01,2.070724219083786011e-01,2.055485099554061890e-01,2.044619768857955933e-01,2.032137513160705566e-01,2.019761800765991211e-01,2.008607238531112671e-01,1.998767703771591187e-01,1.988125741481781006e-01,1.977418810129165649e-01,1.965586245059967041e-01,1.952755302190780640e-01,1.940557509660720825e-01,1.928393840789794922e-01,1.916291862726211548e-01,1.905269622802734375e-01,1.895575225353240967e-01,1.886749714612960815e-01,1.878211945295333862e-01,1.869344562292098999e-01,1.860270500183105469e-01,1.851665377616882324e-01,1.843569427728652954e-01,1.835714876651763916e-01,1.827728301286697388e-01,1.819728761911392212e-01,1.811281889677047729e-01,1.802561134099960327e-01,1.793692559003829956e-01,1.785055398941040039e-01,1.777158528566360474e-01,1.769783049821853638e-01,1.763065755367279053e-01,1.756572276353836060e-01,1.750017404556274414e-01,1.743010729551315308e-01,1.735205352306365967e-01,1.727004796266555786e-01,1.718432158231735229e-01,1.710665076971054077e-01,1.703597307205200195e-01,1.696985661983489990e-01,1.690409034490585327e-01,1.683087944984436035e-01,1.673908084630966187e-01,1.662349104881286621e-01,1.651535034179687500e-01,1.643087565898895264e-01,1.636345088481903076e-01,1.630859524011611938e-01,1.626085788011550903e-01,1.621703207492828369e-01,1.617515385150909424e-01,1.612959504127502441e-01,1.608501076698303223e-01,1.604207158088684082e-01,1.600114405155181885e-01,1.596363186836242676e-01,1.592765301465988159e-01,1.589372903108596802e-01,1.586281359195709229e-01,1.583502888679504395e-01,1.581000834703445435e-01,1.578813940286636353e-01,1.577017158269882202e-01,1.575643569231033325e-01,1.574398428201675415e-01,1.573274284601211548e-01,1.572202593088150024e-01,1.571114957332611084e-01,1.570070385932922363e-01,1.569140553474426270e-01,1.568428277969360352e-01,1.567799896001815796e-01,1.567274481058120728e-01,1.567022055387496948e-01
2.693269848823547363e-01,2.720836102962493896e-01,2.735442817211151123e-01,2.745512723922729492e-01,2.753103375434875488e-01,2.757881879806518555e-01,2.763565182685852051e-01,2.767859101295471191e-01,2.771793007850646973e-01,2.776150703430175781e-01,2.779561281204223633e-01,2.781447470188140869e-01,2.778328657150268555e-01,2.772434055805206299e-01,2.760393917560577393e-01,2.739245593547821045e-01,2.713204026222229004e-01,2.682185769081115723e-01,2.652624845504760742e-01,2.624662220478057861e-01,2.595382630825042725e-01,2.566095888614654541e-01,2.539421916007995605e-01,2.513224482536315918e-01,2.487007528543472290e-01,2.462786138057708740e-01,2.440712898969650269e-01,2.418775260448455811e-01,2.397379875183105469e-01,2.375300377607345581e-01,2.353115975856781006e-01,2.332583665847778320e-01,2.313812226057052612e-01,2.295899838209152222e-01,2.278650850057601929e-01,2.262594252824783325e-01,2.241564691066741943e-01,2.217756509780883789e-01,2.191537320613861084e-01,2.173431664705276489e-01,2.156256586313247681e-01,2.138888984918594360e-01,2.123102396726608276e-01,2.105549275875091553e-01,2.085643410682678223e-01,2.065438181161880493e-01,2.048924267292022705e-01,2.035945504903793335e-01,2.023500204086303711e-01,2.010876834392547607e-01,2.000193893909454346e-01,1.990933567285537720e-01,1.981331110000610352e-01,1.969456672668457031e-01,1.957087367773056030e-01,1.943871378898620605e-01,1.931500881910324097e-01,1.919347941875457764e-01,1.907671242952346802e-01,1.897692084312438965e-01,1.888352781534194946e-01,1.879418045282363892e-01,1.870638281106948853e-01,1.861615926027297974e-01,1.853117346763610840e-01,1.844891309738159180e-01,1.836866438388824463e-01,1.828846186399459839e-01,1.820845156908035278e-01,1.812485307455062866e-01,1.803872734308242798e-01,1.795067042112350464e-01,1.786332726478576660e-01,1.778302192687988281e-01,1.770825237035751343e-01,1.763972789049148560e-01,1.757336705923080444e-01,1.750697046518325806e-01,1.743592619895935059e-01,1.735589206218719482e-01,1.727148294448852539e-01,1.718400269746780396e-01,1.710586249828338623e-01,1.703378558158874512e-01,1.696714013814926147e-01,1.690096259117126465e-01,1.682545989751815796e-01,1.673145592212677002e-01,1.661746948957443237e-01,1.651243120431900024e-01,1.643115878105163574e-01,1.636622995138168335e-01,1.631506234407424927e-01,1.627033799886703491e-01,1.622823029756546021e-01,1.618756055831909180e-01,1.614328473806381226e-01,1.609897166490554810e-01,1.605630367994308472e-01,1.601529866456985474e-01,1.597690433263778687e-01,1.593864858150482178e-01,1.590181142091751099e-01,1.586899608373641968e-01,1.584076732397079468e-01,1.581876724958419800e-01,1.580021381378173828e-01,1.578272581100463867e-01,1.576778292655944824e-01,1.575178653001785278e-01,1.573539078235626221e-01,1.572137027978897095e-01,1.570571810007095337e-01,1.568967103958129883e-01,1.567788273096084595e-01,1.567392945289611816e-01,1.566997170448303223e-01,1.566748470067977905e-01,1.566803902387619019e-01
2.682892680168151855e-01,2.713491618633270264e-01,2.727727890014648438e-01,2.736811935901641846e-01,2.743464410305023193e-01,2.746649086475372314e-01,2.750338912010192871e-01,2.754537165164947510e-01,2.759482264518737793e-01,2.764348387718200684e-01,2.768059372901916504e-01,2.772196531295776367e-01,2.772711217403411865e-01,2.771703600883483887e-01,2.766699790954589844e-01,2.755277156829833984e-01,2.733018398284912109e-01,2.701991796493530273e-01,2.668391764163970947e-01,2.637666463851928711e-01,2.608633041381835938e-01,2.578365206718444824e-01,2.549493014812469482e-01,2.521284520626068115e-01,2.492550462484359741e-01,2.466899901628494263e-01,2.444422245025634766e-01,2.423308342695236206e-01,2.402384281158447266e-01,2.380676716566085815e-01,2.358254343271255493e-01,2.336928844451904297e-01,2.317575365304946899e-01,2.299621254205703735e-01,2.282124608755111694e-01,2.265140712261199951e-01,2.248332351446151733e-01,2.230602353811264038e-01,2.207056134939193726e-01,2.181317806243896484e-01,2.163340896368026733e-01,2.149633169174194336e-01,2.135790586471557617e-01,2.121331989765167236e-01,2.104699909687042236e-01,2.084302157163619995e-01,2.062962353229522705e-01,2.042700350284576416e-01,2.027262151241302490e-01,2.015079557895660400e-01,2.003112286329269409e-01,1.991875469684600830e-01,1.981774419546127319e-01,1.971371024847030640e-01,1.960417777299880981e-01,1.948081105947494507e-01,1.936086118221282959e-01,1.924258172512054443e-01,1.912175565958023071e-01,1.901541650295257568e-01,1.890995949506759644e-01,1.881304830312728882e-01,1.872074156999588013e-01,1.862782984972000122e-01,1.854467689990997314e-01,1.846127361059188843e-01,1.837917566299438477e-01,1.829952746629714966e-01,1.821966916322708130e-01,1.813682764768600464e-01,1.805142909288406372e-01,1.796357333660125732e-01,1.787644624710083008e-01,1.779589504003524780e-01,1.772056072950363159e-01,1.765121966600418091e-01,1.758348792791366577e-01,1.751558035612106323e-01,1.744282394647598267e-01,1.736054271459579468e-01,1.727346777915954590e-01,1.718437969684600830e-01,1.710479408502578735e-01,1.703160703182220459e-01,1.696453690528869629e-01,1.689745783805847168e-01,1.681980043649673462e-01,1.672460585832595825e-01,1.661113947629928589e-01,1.650711894035339355e-01,1.642846316099166870e-01,1.636924594640731812e-01,1.632281690835952759e-01,1.628065258264541626e-01,1.624015271663665771e-01,1.620072424411773682e-01,1.615887284278869629e-01,1.611607521772384644e-01,1.607480794191360474e-01,1.603461951017379761e-01,1.599381268024444580e-01,1.595227569341659546e-01,1.591110080480575562e-01,1.587579250335693359e-01,1.584739387035369873e-01,1.582389026880264282e-01,1.580423712730407715e-01,1.578441113233566284e-01,1.576534658670425415e-01,1.574335247278213501e-01,1.572139263153076172e-01,1.570115536451339722e-01,1.568173766136169434e-01,1.566709578037261963e-01,1.566078811883926392e-01,1.565900892019271851e-01,1.565862149000167847e-01,1.565991640090942383e-01,1.566542387008666992e-01
2.672839462757110596e-01,2.703688740730285645e-01,2.716941535472869873e-01,2.725977599620819092e-01,2.731365859508514404e-01,2.733981013298034668e-01,2.736896872520446777e-01,2.739537954330444336e-01,2.744589149951934814e-01,2.749395370483398438e-01,2.752922475337982178e-01,2.757338285446166992e-01,2.759382724761962891e-01,2.760243117809295654e-01,2.758735716342926025e-01,2.753426730632781982e-01,2.741994261741638184e-01,2.718801200389862061e-01,2.685164809226989746e-01,2.652332484722137451e-01,2.622010111808776855e-01,2.590229213237762451e-01,2.560198307037353516e-01,2.529269158840179443e-01,2.498233318328857422e-01,2.471533268690109253e-01,2.448603808879852295e-01,2.427615523338317871e-01,2.407011687755584717e-01,2.385373562574386597e-01,2.363505810499191284e-01,2.341605871915817261e-01,2.321196794509887695e-01,2.302474528551101685e-01,2.285603880882263184e-01,2.269022166728973389e-01,2.252242565155029297e-01,2.235889434814453125e-01,2.219462990760803223e-01,2.197687774896621704e-01,2.176639139652252197e-01,2.156550884246826172e-01,2.142438590526580811e-01,2.128836065530776978e-01,2.115102261304855347e-01,2.097825556993484497e-01,2.078228294849395752e-01,2.057887166738510132e-01,2.037405222654342651e-01,2.019330561161041260e-01,2.006929367780685425e-01,1.994759440422058105e-01,1.982360929250717163e-01,1.971526890993118286e-01,1.962042003870010376e-01,1.952193230390548706e-01,1.940824240446090698e-01,1.929529458284378052e-01,1.917398124933242798e-01,1.906116008758544922e-01,1.894725859165191650e-01,1.884640306234359741e-01,1.874693632125854492e-01,1.865203529596328735e-01,1.856428384780883789e-01,1.847755163908004761e-01,1.839563101530075073e-01,1.831603199243545532e-01,1.823368221521377563e-01,1.815051734447479248e-01,1.806480884552001953e-01,1.797650307416915894e-01,1.789020746946334839e-01,1.780990213155746460e-01,1.773485988378524780e-01,1.766484677791595459e-01,1.759634912014007568e-01,1.752665638923645020e-01,1.745098531246185303e-01,1.736555248498916626e-01,1.727451980113983154e-01,1.718423515558242798e-01,1.710227876901626587e-01,1.702753305435180664e-01,1.695978045463562012e-01,1.689156591892242432e-01,1.681129485368728638e-01,1.671524047851562500e-01,1.660126149654388428e-01,1.649849563837051392e-01,1.642656028270721436e-01,1.637301295995712280e-01,1.633016318082809448e-01,1.629180014133453369e-01,1.625314503908157349e-01,1.621549129486083984e-01,1.617697477340698242e-01,1.613673716783523560e-01,1.609718799591064453e-01,1.605790704488754272e-01,1.601740419864654541e-01,1.597062200307846069e-01,1.592261791229248047e-01,1.587910354137420654e-01,1.584893763065338135e-01,1.581878960132598877e-01,1.577624082565307617e-01,1.573674082756042480e-01,1.570105403661727905e-01,1.567715406417846680e-01,1.566090285778045654e-01,1.565084159374237061e-01,1.564204543828964233e-01,1.564240455627441406e-01,1.564320623874664307e-01,1.564406007528305054e-01,1.564802378416061401e-01,1.565381735563278198e-01,1.566280573606491089e-01
2.660409212112426758e-01,2.691056132316589355e-01,2.705311775207519531e-01,2.713233530521392822e-01,2.716889381408691406e-01,2.718362510204315186e-01,2.721519768238067627e-01,2.723934352397918701e-01,2.728110849857330322e-01,2.731578946113586426e-01,2.734414935111999512e-01,2.738266885280609131e-01,2.740907073020935059e-01,2.742904722690582275e-01,2.744020223617553711e-01,2.744044065475463867e-01,2.738435268402099609e-01,2.725832462310791016e-01,2.700701057910919189e-01,2.668749988079071045e-01,2.636425495147705078e-01,2.602525651454925537e-01,2.570598125457763672e-01,2.538144290447235107e-01,2.506073117256164551e-01,2.479072362184524536e-01,2.455840259790420532e-01,2.435186356306076050e-01,2.414664179086685181e-01,2.393118590116500854e-01,2.370806187391281128e-01,2.347727864980697632e-01,2.325630336999893188e-01,2.306061983108520508e-01,2.289019674062728882e-01,2.273138910531997681e-01,2.257181406021118164e-01,2.241531163454055786e-01,2.225003689527511597e-01,2.206635177135467529e-01,2.189127355813980103e-01,2.170758098363876343e-01,2.152786850929260254e-01,2.136288136243820190e-01,2.122788578271865845e-01,2.107938975095748901e-01,2.090058773756027222e-01,2.072662115097045898e-01,2.053538411855697632e-01,2.032898664474487305e-01,2.013820558786392212e-01,1.997130215167999268e-01,1.986092627048492432e-01,1.973601877689361572e-01,1.962421089410781860e-01,1.953109353780746460e-01,1.944067180156707764e-01,1.934654265642166138e-01,1.923952996730804443e-01,1.912794411182403564e-01,1.900726109743118286e-01,1.889629364013671875e-01,1.878767311573028564e-01,1.868559867143630981e-01,1.858945488929748535e-01,1.849448978900909424e-01,1.841133683919906616e-01,1.833208948373794556e-01,1.824715882539749146e-01,1.816333234310150146e-01,1.807786971330642700e-01,1.799049377441406250e-01,1.790528148412704468e-01,1.782519221305847168e-01,1.774952709674835205e-01,1.767825186252593994e-01,1.760881394147872925e-01,1.753693819046020508e-01,1.745769828557968140e-01,1.736922711133956909e-01,1.727584004402160645e-01,1.718351244926452637e-01,1.709936708211898804e-01,1.702372431755065918e-01,1.695423871278762817e-01,1.688406616449356079e-01,1.680244952440261841e-01,1.670476496219635010e-01,1.659009307622909546e-01,1.649087220430374146e-01,1.642548739910125732e-01,1.637656539678573608e-01,1.633718013763427734e-01,1.630230545997619629e-01,1.626611053943634033e-01,1.623111069202423096e-01,1.619637459516525269e-01,1.615846455097198486e-01,1.612260341644287109e-01,1.608616858720779419e-01,1.604548692703247070e-01,1.599101424217224121e-01,1.590919196605682373e-01,1.583476364612579346e-01,1.575058549642562866e-01,1.567778587341308594e-01,1.563834846019744873e-01,1.562029421329498291e-01,1.560851633548736572e-01,1.560192108154296875e-01,1.560330688953399658e-01,1.561089605093002319e-01,1.561927646398544312e-01,1.562690734863281250e-01,1.563331931829452515e-01,1.564002037048339844e-01,1.564883142709732056e-01,1.565738022327423096e-01,1.566700488328933716e-01
2.645380795001983643e-01,2.672746479511260986e-01,2.690414786338806152e-01,2.697837054729461670e-01,2.700514793395996094e-01,2.702404558658599854e-01,2.705022096633911133e-01,2.706814408302307129e-01,2.709724009037017822e-01,2.711917161941528320e-01,2.713924348354339600e-01,2.717131972312927246e-01,2.720149755477905273e-01,2.722909152507781982e-01,2.725730240345001221e-01,2.726964354515075684e-01,2.724369466304779053e-01,2.718555033206939697e-01,2.703744769096374512e-01,2.680662870407104492e-01,2.649775445461273193e-01,2.615817785263061523e-01,2.582186460494995117e-01,2.549055516719818115e-01,2.516329586505889893e-01,2.488632798194885254e-01,2.465508282184600830e-01,2.444799840450286865e-01,2.424946278333663940e-01,2.403606921434402466e-01,2.380639463663101196e-01,2.356202900409698486e-01,2.331791520118713379e-01,2.311132699251174927e-01,2.293760776519775391e-01,2.277652025222778320e-01,2.262092828750610352e-01,2.247173786163330078e-01,2.231596559286117554e-01,2.214358747005462646e-01,2.197127193212509155e-01,2.180053293704986572e-01,2.163358181715011597e-01,2.147656679153442383e-01,2.130160927772521973e-01,2.114470154047012329e-01,2.099077254533767700e-01,2.083381563425064087e-01,2.067138999700546265e-01,2.048721313476562500e-01,2.030131220817565918e-01,2.009249031543731689e-01,1.989469826221466064e-01,1.977432817220687866e-01,1.965973973274230957e-01,1.954386234283447266e-01,1.945289075374603271e-01,1.937498301267623901e-01,1.929741054773330688e-01,1.919664591550827026e-01,1.907539963722229004e-01,1.896570920944213867e-01,1.883096247911453247e-01,1.872534453868865967e-01,1.862053573131561279e-01,1.852416843175888062e-01,1.843364685773849487e-01,1.834921687841415405e-01,1.826403290033340454e-01,1.817780584096908569e-01,1.809132695198059082e-01,1.800350099802017212e-01,1.791781932115554810e-01,1.783778220415115356e-01,1.776147931814193726e-01,1.768898516893386841e-01,1.761838346719741821e-01,1.754482537508010864e-01,1.746301949024200439e-01,1.737142950296401978e-01,1.727538108825683594e-01,1.718055456876754761e-01,1.709474623203277588e-01,1.701871454715728760e-01,1.694778949022293091e-01,1.687478572130203247e-01,1.679123938083648682e-01,1.668948084115982056e-01,1.657528132200241089e-01,1.648134440183639526e-01,1.642317473888397217e-01,1.637977212667465210e-01,1.634452491998672485e-01,1.631176024675369263e-01,1.627832800149917603e-01,1.624654829502105713e-01,1.621538102626800537e-01,1.618149578571319580e-01,1.615085452795028687e-01,1.612021923065185547e-01,1.607826948165893555e-01,1.599930822849273682e-01,1.586250066757202148e-01,1.572339534759521484e-01,1.564398407936096191e-01,1.560591906309127808e-01,1.559412479400634766e-01,1.559283435344696045e-01,1.559207439422607422e-01,1.559377461671829224e-01,1.560090631246566772e-01,1.561046689748764038e-01,1.561732739210128784e-01,1.562401205301284790e-01,1.563243120908737183e-01,1.564154028892517090e-01,1.565269082784652710e-01,1.566374003887176514e-01,1.567504256963729858e-01
2.621861994266510010e-01,2.645785212516784668e-01,2.670476734638214111e-01,2.681351900100708008e-01,2.684643268585205078e-01,2.686580121517181396e-01,2.688775658607482910e-01,2.690330445766448975e-01,2.692711055278778076e-01,2.694022357463836670e-01,2.695199549198150635e-01,2.697376310825347900e-01,2.700081169605255127e-01,2.703171074390411377e-01,2.706428766250610352e-01,2.708564102649688721e-01,2.707405388355255127e-01,2.704363167285919189e-01,2.696338593959808350e-01,2.682802975177764893e-01,2.659620344638824463e-01,2.630304992198944092e-01,2.597409486770629883e-01,2.560516595840454102e-01,2.527256011962890625e-01,2.496973723173141479e-01,2.474523484706878662e-01,2.455072999000549316e-01,2.435643672943115234e-01,2.415104061365127563e-01,2.391849607229232788e-01,2.367125749588012695e-01,2.340386509895324707e-01,2.319042980670928955e-01,2.300922125577926636e-01,2.284356057643890381e-01,2.268027961254119873e-01,2.252908200025558472e-01,2.237538695335388184e-01,2.221581488847732544e-01,2.205436229705810547e-01,2.188038825988769531e-01,2.172434031963348389e-01,2.158200442790985107e-01,2.141344845294952393e-01,2.124836742877960205e-01,2.105934023857116699e-01,2.092214822769165039e-01,2.077558189630508423e-01,2.061490863561630249e-01,2.045151293277740479e-01,2.026882171630859375e-01,2.006186097860336304e-01,1.985183060169219971e-01,1.970465332269668579e-01,1.959480643272399902e-01,1.948175877332687378e-01,1.938768923282623291e-01,1.931416988372802734e-01,1.923039853572845459e-01,1.913116276264190674e-01,1.902263313531875610e-01,1.891067624092102051e-01,1.877656131982803345e-01,1.866142749786376953e-01,1.856094002723693848e-01,1.846068948507308960e-01,1.836681962013244629e-01,1.828192621469497681e-01,1.819052845239639282e-01,1.810272783041000366e-01,1.801429688930511475e-01,1.792750805616378784e-01,1.784795522689819336e-01,1.777231991291046143e-01,1.769890934228897095e-01,1.762723177671432495e-01,1.755147725343704224e-01,1.746702939271926880e-01,1.737337708473205566e-01,1.727462708950042725e-01,1.717733442783355713e-01,1.709111928939819336e-01,1.701525747776031494e-01,1.694253236055374146e-01,1.686597913503646851e-01,1.677963584661483765e-01,1.667350679636001587e-01,1.656054407358169556e-01,1.647518277168273926e-01,1.642353236675262451e-01,1.638447642326354980e-01,1.635220199823379517e-01,1.632215231657028198e-01,1.629233658313751221e-01,1.626459509134292603e-01,1.623723804950714111e-01,1.620863676071166992e-01,1.618374735116958618e-01,1.615753322839736938e-01,1.611931174993515015e-01,1.599344313144683838e-01,1.575718820095062256e-01,1.565135121345520020e-01,1.561030298471450806e-01,1.560048311948776245e-01,1.559898108243942261e-01,1.560119241476058960e-01,1.560307741165161133e-01,1.560533493757247925e-01,1.561027914285659790e-01,1.561728715896606445e-01,1.562355756759643555e-01,1.563072055578231812e-01,1.564018428325653076e-01,1.565013974905014038e-01,1.566134989261627197e-01,1.567214131355285645e-01,1.568319499492645264e-01
2.610127031803131104e-01,2.621174752712249756e-01,2.648305594921112061e-01,2.663043737411499023e-01,2.668810188770294189e-01,2.671298086643218994e-01,2.672992050647735596e-01,2.674492299556732178e-01,2.675820887088775635e-01,2.676494419574737549e-01,2.678064703941345215e-01,2.679803073406219482e-01,2.681370973587036133e-01,2.684578001499176025e-01,2.687304019927978516e-01,2.688998878002166748e-01,2.688933014869689941e-01,2.686940133571624756e-01,2.681683301925659180e-01,2.673352658748626709e-01,2.659374177455902100e-01,2.640897631645202637e-01,2.616398930549621582e-01,2.580993771553039551e-01,2.545088231563568115e-01,2.514001131057739258e-01,2.486965805292129517e-01,2.466469556093215942e-01,2.447304874658584595e-01,2.427753359079360962e-01,2.405555993318557739e-01,2.381722629070281982e-01,2.353056371212005615e-01,2.329567074775695801e-01,2.309870421886444092e-01,2.292506247758865356e-01,2.275282740592956543e-01,2.258720546960830688e-01,2.243061065673828125e-01,2.227052003145217896e-01,2.211094349622726440e-01,2.195327877998352051e-01,2.179730683565139771e-01,2.165310531854629517e-01,2.150768339633941650e-01,2.136204987764358521e-01,2.118873149156570435e-01,2.101791799068450928e-01,2.084552645683288574e-01,2.070446312427520752e-01,2.056598365306854248e-01,2.041948139667510986e-01,2.023520618677139282e-01,2.002241462469100952e-01,1.981464326381683350e-01,1.964641958475112915e-01,1.953134089708328247e-01,1.942248493432998657e-01,1.931962370872497559e-01,1.922630369663238525e-01,1.913743466138839722e-01,1.904862374067306519e-01,1.894602179527282715e-01,1.882367432117462158e-01,1.870935708284378052e-01,1.859274506568908691e-01,1.848878711462020874e-01,1.838793903589248657e-01,1.830073595046997070e-01,1.820472329854965210e-01,1.811575591564178467e-01,1.802739500999450684e-01,1.793828606605529785e-01,1.785756349563598633e-01,1.778164803981781006e-01,1.770793348550796509e-01,1.763359159231185913e-01,1.755445301532745361e-01,1.746604889631271362e-01,1.737052798271179199e-01,1.727118790149688721e-01,1.717468053102493286e-01,1.709087193012237549e-01,1.701596379280090332e-01,1.694148033857345581e-01,1.686148941516876221e-01,1.676860302686691284e-01,1.665645390748977661e-01,1.654540002346038818e-01,1.647214144468307495e-01,1.642538309097290039e-01,1.638965457677841187e-01,1.636102646589279175e-01,1.633472442626953125e-01,1.630846261978149414e-01,1.628452688455581665e-01,1.626241654157638550e-01,1.624070405960083008e-01,1.622166186571121216e-01,1.620117723941802979e-01,1.616338044404983521e-01,1.592136621475219727e-01,1.569356173276901245e-01,1.562241613864898682e-01,1.559993624687194824e-01,1.560062468051910400e-01,1.560639441013336182e-01,1.560634970664978027e-01,1.560909003019332886e-01,1.561103463172912598e-01,1.561551988124847412e-01,1.562161147594451904e-01,1.562794595956802368e-01,1.563594490289688110e-01,1.564568132162094116e-01,1.565532833337783813e-01,1.566653102636337280e-01,1.567797362804412842e-01,1.568987369537353516e-01
2.604487836360931396e-01,2.609540224075317383e-01,2.631560266017913818e-01,2.647231817245483398e-01,2.652834057807922363e-01,2.655572891235351562e-01,2.655978798866271973e-01,2.656405270099639893e-01,2.657480239868164062e-01,2.657658457756042480e-01,2.659005224704742432e-01,2.660987377166748047e-01,2.661896049976348877e-01,2.663372755050659180e-01,2.665572166442871094e-01,2.666666209697723389e-01,2.667257487773895264e-01,2.666917741298675537e-01,2.663892209529876709e-01,2.658906579017639160e-01,2.650918066501617432e-01,2.641876339912414551e-01,2.628226876258850098e-01,2.604505419731140137e-01,2.570439875125885010e-01,2.535821795463562012e-01,2.505225837230682373e-01,2.481626719236373901e-01,2.463086545467376709e-01,2.442638576030731201e-01,2.420959919691085815e-01,2.397003471851348877e-01,2.369128912687301636e-01,2.342883497476577759e-01,2.321750223636627197e-01,2.302474230527877808e-01,2.284242808818817139e-01,2.265982180833816528e-01,2.248930037021636963e-01,2.232305258512496948e-01,2.215842902660369873e-01,2.200221121311187744e-01,2.185273468494415283e-01,2.171784937381744385e-01,2.157910168170928955e-01,2.144362777471542358e-01,2.128579914569854736e-01,2.112042009830474854e-01,2.095396220684051514e-01,2.078996300697326660e-01,2.064661085605621338e-01,2.051433175802230835e-01,2.036462128162384033e-01,2.018781304359436035e-01,1.998385190963745117e-01,1.979008913040161133e-01,1.961291432380676270e-01,1.945882737636566162e-01,1.935282349586486816e-01,1.924723386764526367e-01,1.914490759372711182e-01,1.904952675104141235e-01,1.895055621862411499e-01,1.884147822856903076e-01,1.874183267354965210e-01,1.864684522151947021e-01,1.853338330984115601e-01,1.843409985303878784e-01,1.833541393280029297e-01,1.823776066303253174e-01,1.814262866973876953e-01,1.804822385311126709e-01,1.795898824930191040e-01,1.787241399288177490e-01,1.779361665248870850e-01,1.772074848413467407e-01,1.764503419399261475e-01,1.756296902894973755e-01,1.747025847434997559e-01,1.737111508846282959e-01,1.727203875780105591e-01,1.717648059129714966e-01,1.709350496530532837e-01,1.701753288507461548e-01,1.693985760211944580e-01,1.685544550418853760e-01,1.675426065921783447e-01,1.663663238286972046e-01,1.653117090463638306e-01,1.646796315908432007e-01,1.642622053623199463e-01,1.639528721570968628e-01,1.637047678232192993e-01,1.634676158428192139e-01,1.632278412580490112e-01,1.630254834890365601e-01,1.628514379262924194e-01,1.626886725425720215e-01,1.625519692897796631e-01,1.624264121055603027e-01,1.618713438510894775e-01,1.586613059043884277e-01,1.566683351993560791e-01,1.561173349618911743e-01,1.560238003730773926e-01,1.560570150613784790e-01,1.560603976249694824e-01,1.561065763235092163e-01,1.561524718999862671e-01,1.561713516712188721e-01,1.562121957540512085e-01,1.562831103801727295e-01,1.563541740179061890e-01,1.564424037933349609e-01,1.565488278865814209e-01,1.566616892814636230e-01,1.567842513322830200e-01,1.569073498249053955e-01,1.570404917001724243e-01
2.597709596157073975e-01,2.602497339248657227e-01,2.618550360202789307e-01,2.631832659244537354e-01,2.636662125587463379e-01,2.638198435306549072e-01,2.637881636619567871e-01,2.638142704963684082e-01,2.639887332916259766e-01,2.640144824981689453e-01,2.640479803085327148e-01,2.642040550708770752e-01,2.643323540687561035e-01,2.644347846508026123e-01,2.644927799701690674e-01,2.646080851554870605e-01,2.646382749080657959e-01,2.645903527736663818e-01,2.644830048084259033e-01,2.642100453376770020e-01,2.637079954147338867e-01,2.632693946361541748e-01,2.626221776008605957e-01,2.615652978420257568e-01,2.593322694301605225e-01,2.561734318733215332e-01,2.527084052562713623e-01,2.497585117816925049e-01,2.477330267429351807e-01,2.457167655229568481e-01,2.435152530670166016e-01,2.410086542367935181e-01,2.383465319871902466e-01,2.357506304979324341e-01,2.335645407438278198e-01,2.314890176057815552e-01,2.294547855854034424e-01,2.275757342576980591e-01,2.257552593946456909e-01,2.239529937505722046e-01,2.221791446208953857e-01,2.205100208520889282e-01,2.190009504556655884e-01,2.176980674266815186e-01,2.164484113454818726e-01,2.151852697134017944e-01,2.137428075075149536e-01,2.120834589004516602e-01,2.104254513978958130e-01,2.088342159986495972e-01,2.072754353284835815e-01,2.055712938308715820e-01,2.041922509670257568e-01,2.027973681688308716e-01,2.011653929948806763e-01,1.994201242923736572e-01,1.976825743913650513e-01,1.959361284971237183e-01,1.942753940820693970e-01,1.927994489669799805e-01,1.916519105434417725e-01,1.906066387891769409e-01,1.895149648189544678e-01,1.885089278221130371e-01,1.876119077205657959e-01,1.868274360895156860e-01,1.857835501432418823e-01,1.848578900098800659e-01,1.838129013776779175e-01,1.827993243932723999e-01,1.818238347768783569e-01,1.808806061744689941e-01,1.799488216638565063e-01,1.790753155946731567e-01,1.782080978155136108e-01,1.774761974811553955e-01,1.766577363014221191e-01,1.757790744304656982e-01,1.748466938734054565e-01,1.738125234842300415e-01,1.728108674287796021e-01,1.718753725290298462e-01,1.710492074489593506e-01,1.702618747949600220e-01,1.694323718547821045e-01,1.685183197259902954e-01,1.674174517393112183e-01,1.661922037601470947e-01,1.651813983917236328e-01,1.645959913730621338e-01,1.642505079507827759e-01,1.639847308397293091e-01,1.637648344039916992e-01,1.635394692420959473e-01,1.633295416831970215e-01,1.631761491298675537e-01,1.630544513463973999e-01,1.629380285739898682e-01,1.628544926643371582e-01,1.627594083547592163e-01,1.621792167425155640e-01,1.586728692054748535e-01,1.564103513956069946e-01,1.560055613517761230e-01,1.560077667236328125e-01,1.560518890619277954e-01,1.560741066932678223e-01,1.561360657215118408e-01,1.561828106641769409e-01,1.562061458826065063e-01,1.562737822532653809e-01,1.563715040683746338e-01,1.564637720584869385e-01,1.565605252981185913e-01,1.566853821277618408e-01,1.568258851766586304e-01,1.569532901048660278e-01,1.570571064949035645e-01,1.571886688470840454e-01
2.587572038173675537e-01,2.595091760158538818e-01,2.604772150516510010e-01,2.615314722061157227e-01,2.617912888526916504e-01,2.619692981243133545e-01,2.620046734809875488e-01,2.620320618152618408e-01,2.621794939041137695e-01,2.622137963771820068e-01,2.622409760951995850e-01,2.623240947723388672e-01,2.624846994876861572e-01,2.626322209835052490e-01,2.626206278800964355e-01,2.625989615917205811e-01,2.625754177570343018e-01,2.624938488006591797e-01,2.623746395111083984e-01,2.622005641460418701e-01,2.619238793849945068e-01,2.617166042327880859e-01,2.614122033119201660e-01,2.610484063625335693e-01,2.601681947708129883e-01,2.581808567047119141e-01,2.555297911167144775e-01,2.523085474967956543e-01,2.496763467788696289e-01,2.473566681146621704e-01,2.450033277273178101e-01,2.423754185438156128e-01,2.396968454122543335e-01,2.371714711189270020e-01,2.349561154842376709e-01,2.328491657972335815e-01,2.307988107204437256e-01,2.288282662630081177e-01,2.269131839275360107e-01,2.250260561704635620e-01,2.231589257717132568e-01,2.213950902223587036e-01,2.197343856096267700e-01,2.182876616716384888e-01,2.169733792543411255e-01,2.156922370195388794e-01,2.143797427415847778e-01,2.129149734973907471e-01,2.113129794597625732e-01,2.097560912370681763e-01,2.082839906215667725e-01,2.066164761781692505e-01,2.049124687910079956e-01,2.035899311304092407e-01,2.021586745977401733e-01,2.006072103977203369e-01,1.991249620914459229e-01,1.977249681949615479e-01,1.962873339653015137e-01,1.945243179798126221e-01,1.926242560148239136e-01,1.909278333187103271e-01,1.896404772996902466e-01,1.885967254638671875e-01,1.876698583364486694e-01,1.868396848440170288e-01,1.860102713108062744e-01,1.852234452962875366e-01,1.843579858541488647e-01,1.834705621004104614e-01,1.824919134378433228e-01,1.814207285642623901e-01,1.803896129131317139e-01,1.795494258403778076e-01,1.786315888166427612e-01,1.778315752744674683e-01,1.769474893808364868e-01,1.759421080350875854e-01,1.750136017799377441e-01,1.739645749330520630e-01,1.729463636875152588e-01,1.720272004604339600e-01,1.712146550416946411e-01,1.704106181859970093e-01,1.695409715175628662e-01,1.685640662908554077e-01,1.673336476087570190e-01,1.660205870866775513e-01,1.650619804859161377e-01,1.645604223012924194e-01,1.642653346061706543e-01,1.640489697456359863e-01,1.638375967741012573e-01,1.636286079883575439e-01,1.634589731693267822e-01,1.633457541465759277e-01,1.632663756608963013e-01,1.631923317909240723e-01,1.631181985139846802e-01,1.630317866802215576e-01,1.622685194015502930e-01,1.586820036172866821e-01,1.563271582126617432e-01,1.559715569019317627e-01,1.559605896472930908e-01,1.559946238994598389e-01,1.560655534267425537e-01,1.561139523983001709e-01,1.561726778745651245e-01,1.562261879444122314e-01,1.563121229410171509e-01,1.564396470785140991e-01,1.565655320882797241e-01,1.567109674215316772e-01,1.568645685911178589e-01,1.570469290018081665e-01,1.571529805660247803e-01,1.572878062725067139e-01,1.574232131242752075e-01
2.577941715717315674e-01,2.584589421749114990e-01,2.592261135578155518e-01,2.597215175628662109e-01,2.599799931049346924e-01,2.601075768470764160e-01,2.602083683013916016e-01,2.602885365486145020e-01,2.604396641254425049e-01,2.604874968528747559e-01,2.605323791503906250e-01,2.605826854705810547e-01,2.606956064701080322e-01,2.608180046081542969e-01,2.608268558979034424e-01,2.607645094394683838e-01,2.606264352798461914e-01,2.605426907539367676e-01,2.604251503944396973e-01,2.602019011974334717e-01,2.599367201328277588e-01,2.598164975643157959e-01,2.596901655197143555e-01,2.595189511775970459e-01,2.591128945350646973e-01,2.584682404994964600e-01,2.567086517810821533e-01,2.545036077499389648e-01,2.519938349723815918e-01,2.494542896747589111e-01,2.466933429241180420e-01,2.436946481466293335e-01,2.408732175827026367e-01,2.384102046489715576e-01,2.361069172620773315e-01,2.339229285717010498e-01,2.318714857101440430e-01,2.298556864261627197e-01,2.279077619314193726e-01,2.260000556707382202e-01,2.241197526454925537e-01,2.223087400197982788e-01,2.205778658390045166e-01,2.189022898674011230e-01,2.174352556467056274e-01,2.160760909318923950e-01,2.147714942693710327e-01,2.135205417871475220e-01,2.121195644140243530e-01,2.106316834688186646e-01,2.091457247734069824e-01,2.076340764760971069e-01,2.060384899377822876e-01,2.046656310558319092e-01,2.029420435428619385e-01,2.016229331493377686e-01,2.002108395099639893e-01,1.987369060516357422e-01,1.974934488534927368e-01,1.961636096239089966e-01,1.945286989212036133e-01,1.925374865531921387e-01,1.904493272304534912e-01,1.888202577829360962e-01,1.877637505531311035e-01,1.867450773715972900e-01,1.859196126461029053e-01,1.852060854434967041e-01,1.845078766345977783e-01,1.838493794202804565e-01,1.830145120620727539e-01,1.821570992469787598e-01,1.812619864940643311e-01,1.801992356777191162e-01,1.791528910398483276e-01,1.783434301614761353e-01,1.774740964174270630e-01,1.763513833284378052e-01,1.752393394708633423e-01,1.741672009229660034e-01,1.731727719306945801e-01,1.722414195537567139e-01,1.714201718568801880e-01,1.705850809812545776e-01,1.696470081806182861e-01,1.686072051525115967e-01,1.671919524669647217e-01,1.657825112342834473e-01,1.649429649114608765e-01,1.645582169294357300e-01,1.643519550561904907e-01,1.641508042812347412e-01,1.639475971460342407e-01,1.637739390134811401e-01,1.636404246091842651e-01,1.635633111000061035e-01,1.635235100984573364e-01,1.634790301322937012e-01,1.634194254875183105e-01,1.632980555295944214e-01,1.622043251991271973e-01,1.587092429399490356e-01,1.563543081283569336e-01,1.559952646493911743e-01,1.559173166751861572e-01,1.559649109840393066e-01,1.560390591621398926e-01,1.560948938131332397e-01,1.561603844165802002e-01,1.562525182962417603e-01,1.563853621482849121e-01,1.565297693014144897e-01,1.566822230815887451e-01,1.568653285503387451e-01,1.570639610290527344e-01,1.572625190019607544e-01,1.574573963880538940e-01,1.576626151800155640e-01,1.579004228115081787e-01
2.568359673023223877e-01,2.574236094951629639e-01,2.577276229858398438e-01,2.581251859664916992e-01,2.582831382751464844e-01,2.583651542663574219e-01,2.584987580776214600e-01,2.586477696895599365e-01,2.587629556655883789e-01,2.588188052177429199e-01,2.588498890399932861e-01,2.588991820812225342e-01,2.589791119098663330e-01,2.590492069721221924e-01,2.590548396110534668e-01,2.589700818061828613e-01,2.587883174419403076e-01,2.586713731288909912e-01,2.584535777568817139e-01,2.582286298274993896e-01,2.579598724842071533e-01,2.578341066837310791e-01,2.578723728656768799e-01,2.578003108501434326e-01,2.576301693916320801e-01,2.573918402194976807e-01,2.568580210208892822e-01,2.554681003093719482e-01,2.535825669765472412e-01,2.513623535633087158e-01,2.482921630144119263e-01,2.449209392070770264e-01,2.417859733104705811e-01,2.392858117818832397e-01,2.370223104953765869e-01,2.347380965948104858e-01,2.325841039419174194e-01,2.305611222982406616e-01,2.286180704832077026e-01,2.267441004514694214e-01,2.248913645744323730e-01,2.230907976627349854e-01,2.213501483201980591e-01,2.196788936853408813e-01,2.181048095226287842e-01,2.166282832622528076e-01,2.152403593063354492e-01,2.139778286218643188e-01,2.127184569835662842e-01,2.114363461732864380e-01,2.100551277399063110e-01,2.085853368043899536e-01,2.071131020784378052e-01,2.057368904352188110e-01,2.042707949876785278e-01,2.026874572038650513e-01,2.012579143047332764e-01,1.998860388994216919e-01,1.986364126205444336e-01,1.972649246454238892e-01,1.956976652145385742e-01,1.939351558685302734e-01,1.918874979019165039e-01,1.896705180406570435e-01,1.879720091819763184e-01,1.867656558752059937e-01,1.858060359954833984e-01,1.851175427436828613e-01,1.844083517789840698e-01,1.836856007575988770e-01,1.829177141189575195e-01,1.823077797889709473e-01,1.817368566989898682e-01,1.810982376337051392e-01,1.802746355533599854e-01,1.793182194232940674e-01,1.781573593616485596e-01,1.771088689565658569e-01,1.756198108196258545e-01,1.745277345180511475e-01,1.734415590763092041e-01,1.724702864885330200e-01,1.716859936714172363e-01,1.708344221115112305e-01,1.698430776596069336e-01,1.687009781599044800e-01,1.671153157949447632e-01,1.656270772218704224e-01,1.648730039596557617e-01,1.645826101303100586e-01,1.643833965063095093e-01,1.641940772533416748e-01,1.640248894691467285e-01,1.639088839292526245e-01,1.638237535953521729e-01,1.637815386056900024e-01,1.637852042913436890e-01,1.637716442346572876e-01,1.637154519557952881e-01,1.635164767503738403e-01,1.621343046426773071e-01,1.588202714920043945e-01,1.564407050609588623e-01,1.560001969337463379e-01,1.559004038572311401e-01,1.559490412473678589e-01,1.560409814119338989e-01,1.561166346073150635e-01,1.561908721923828125e-01,1.562876105308532715e-01,1.564534753561019897e-01,1.566166132688522339e-01,1.567853391170501709e-01,1.569673568010330200e-01,1.571876108646392822e-01,1.573844254016876221e-01,1.575961410999298096e-01,1.578141748905181885e-01,1.580397486686706543e-01
2.557083964347839355e-01,2.560845315456390381e-01,2.563727796077728271e-01,2.565521001815795898e-01,2.567565143108367920e-01,2.567586004734039307e-01,2.568247318267822266e-01,2.569723129272460938e-01,2.570624351501464844e-01,2.571307718753814697e-01,2.571898996829986572e-01,2.572399973869323730e-01,2.572945058345794678e-01,2.573540508747100830e-01,2.573460340499877930e-01,2.572151422500610352e-01,2.570203244686126709e-01,2.568474113941192627e-01,2.566441893577575684e-01,2.564415633678436279e-01,2.562019526958465576e-01,2.561138868331909180e-01,2.560392320156097412e-01,2.559712231159210205e-01,2.559226751327514648e-01,2.557978928089141846e-01,2.555344998836517334e-01,2.552020251750946045e-01,2.542114853858947754e-01,2.527121305465698242e-01,2.503904998302459717e-01,2.466908544301986694e-01,2.431804835796356201e-01,2.402485758066177368e-01,2.379758059978485107e-01,2.357056885957717896e-01,2.334501892328262329e-01,2.312570065259933472e-01,2.293142825365066528e-01,2.274445146322250366e-01,2.256044447422027588e-01,2.238116115331649780e-01,2.220437824726104736e-01,2.203645855188369751e-01,2.187922000885009766e-01,2.172480672597885132e-01,2.157801091670989990e-01,2.144308984279632568e-01,2.131895124912261963e-01,2.120018750429153442e-01,2.107645273208618164e-01,2.094784229993820190e-01,2.080726921558380127e-01,2.065757960081100464e-01,2.051077932119369507e-01,2.036942988634109497e-01,2.022747546434402466e-01,2.008594125509262085e-01,1.994678676128387451e-01,1.981638967990875244e-01,1.968714296817779541e-01,1.954264789819717407e-01,1.936597526073455811e-01,1.912642121315002441e-01,1.890345364809036255e-01,1.872080415487289429e-01,1.861040592193603516e-01,1.852267980575561523e-01,1.843359917402267456e-01,1.835879683494567871e-01,1.829150319099426270e-01,1.823620051145553589e-01,1.818644255399703979e-01,1.814416050910949707e-01,1.809649765491485596e-01,1.803505122661590576e-01,1.796996444463729858e-01,1.787435859441757202e-01,1.770876646041870117e-01,1.751411259174346924e-01,1.739428192377090454e-01,1.729159355163574219e-01,1.720666140317916870e-01,1.711862087249755859e-01,1.701480597257614136e-01,1.687843352556228638e-01,1.670768260955810547e-01,1.656292378902435303e-01,1.648860573768615723e-01,1.646197438240051270e-01,1.644237339496612549e-01,1.642564982175827026e-01,1.641344875097274780e-01,1.640705019235610962e-01,1.640245169401168823e-01,1.640111654996871948e-01,1.640300154685974121e-01,1.640259772539138794e-01,1.639876514673233032e-01,1.636950224637985229e-01,1.622205376625061035e-01,1.589996367692947388e-01,1.564967334270477295e-01,1.559954881668090820e-01,1.559030711650848389e-01,1.559878736734390259e-01,1.561121344566345215e-01,1.562021523714065552e-01,1.562872678041458130e-01,1.563863456249237061e-01,1.565304845571517944e-01,1.566961705684661865e-01,1.568882912397384644e-01,1.570607423782348633e-01,1.572892814874649048e-01,1.574779003858566284e-01,1.576879918575286865e-01,1.579063981771469116e-01,1.581343263387680054e-01
2.544367909431457520e-01,2.547114193439483643e-01,2.549087703227996826e-01,2.550487816333770752e-01,2.551544904708862305e-01,2.551212310791015625e-01,2.551221847534179688e-01,2.552575170993804932e-01,2.553500831127166748e-01,2.554159760475158691e-01,2.554859220981597900e-01,2.555434703826904297e-01,2.556028366088867188e-01,2.556157410144805908e-01,2.555511593818664551e-01,2.554022073745727539e-01,2.552353739738464355e-01,2.550563514232635498e-01,2.548919320106506348e-01,2.547381520271301270e-01,2.544863224029541016e-01,2.543430328369140625e-01,2.542780339717864990e-01,2.541745901107788086e-01,2.541227340698242188e-01,2.540750205516815186e-01,2.539574503898620605e-01,2.537691593170166016e-01,2.535036504268646240e-01,2.530125081539154053e-01,2.515070438385009766e-01,2.488594502210617065e-01,2.453377544879913330e-01,2.418585717678070068e-01,2.389386594295501709e-01,2.364889383316040039e-01,2.342818826436996460e-01,2.319823354482650757e-01,2.299884855747222900e-01,2.280948013067245483e-01,2.262299656867980957e-01,2.244589328765869141e-01,2.226932048797607422e-01,2.210060358047485352e-01,2.194497287273406982e-01,2.179555296897888184e-01,2.165157496929168701e-01,2.151458412408828735e-01,2.138204425573348999e-01,2.125260829925537109e-01,2.112349122762680054e-01,2.099828124046325684e-01,2.087338864803314209e-01,2.073279470205307007e-01,2.058857679367065430e-01,2.044977098703384399e-01,2.031068950891494751e-01,2.017582952976226807e-01,2.004036307334899902e-01,1.990375369787216187e-01,1.977647840976715088e-01,1.968026310205459595e-01,1.956311464309692383e-01,1.939468234777450562e-01,1.916937232017517090e-01,1.891328990459442139e-01,1.871699094772338867e-01,1.858153641223907471e-01,1.847365200519561768e-01,1.839102357625961304e-01,1.831275224685668945e-01,1.824737638235092163e-01,1.820398718118667603e-01,1.816710382699966431e-01,1.812150627374649048e-01,1.806705594062805176e-01,1.799952089786529541e-01,1.793758422136306763e-01,1.785052120685577393e-01,1.768352240324020386e-01,1.746947765350341797e-01,1.735495924949645996e-01,1.725240796804428101e-01,1.715488135814666748e-01,1.702786833047866821e-01,1.687408387660980225e-01,1.669495105743408203e-01,1.655939072370529175e-01,1.649755239486694336e-01,1.647192239761352539e-01,1.645172089338302612e-01,1.643893867731094360e-01,1.643011271953582764e-01,1.642556190490722656e-01,1.642325818538665771e-01,1.642534136772155762e-01,1.642967015504837036e-01,1.643103063106536865e-01,1.642980873584747314e-01,1.640152037143707275e-01,1.625021547079086304e-01,1.591902524232864380e-01,1.565946042537689209e-01,1.560718715190887451e-01,1.559666246175765991e-01,1.560637801885604858e-01,1.562078744173049927e-01,1.562946438789367676e-01,1.563824415206909180e-01,1.564601361751556396e-01,1.566069424152374268e-01,1.567606776952743530e-01,1.569610685110092163e-01,1.571546494960784912e-01,1.573763936758041382e-01,1.575913280248641968e-01,1.578183919191360474e-01,1.580371111631393433e-01,1.582538336515426636e-01
2.531132400035858154e-01,2.532888650894165039e-01,2.533378303050994873e-01,2.533415853977203369e-01,2.533947229385375977e-01,2.534299194812774658e-01,2.535109817981719971e-01,2.536400556564331055e-01,2.537189722061157227e-01,2.537567615509033203e-01,2.537951469421386719e-01,2.538460493087768555e-01,2.538700699806213379e-01,2.538302242755889893e-01,2.537297606468200684e-01,2.535854279994964600e-01,2.534492611885070801e-01,2.532743811607360840e-01,2.531425058841705322e-01,2.529855966567993164e-01,2.527549564838409424e-01,2.526596188545227051e-01,2.525489628314971924e-01,2.524558007717132568e-01,2.523792386054992676e-01,2.523426711559295654e-01,2.523312270641326904e-01,2.522643804550170898e-01,2.521194815635681152e-01,2.519556283950805664e-01,2.514714896678924561e-01,2.499792277812957764e-01,2.474842071533203125e-01,2.442487776279449463e-01,2.408291399478912354e-01,2.377416044473648071e-01,2.352787256240844727e-01,2.328950017690658569e-01,2.308537662029266357e-01,2.288222163915634155e-01,2.269316911697387695e-01,2.251311242580413818e-01,2.233982980251312256e-01,2.217466831207275391e-01,2.202015966176986694e-01,2.187162786722183228e-01,2.173189669847488403e-01,2.159406840801239014e-01,2.145363688468933105e-01,2.130982875823974609e-01,2.117112725973129272e-01,2.103673219680786133e-01,2.090789526700973511e-01,2.077798545360565186e-01,2.064825445413589478e-01,2.051806747913360596e-01,2.038173526525497437e-01,2.024642080068588257e-01,2.011415362358093262e-01,1.998031586408615112e-01,1.985014975070953369e-01,1.974681317806243896e-01,1.965521126985549927e-01,1.955689638853073120e-01,1.941269487142562866e-01,1.920198649168014526e-01,1.896570622920989990e-01,1.875424832105636597e-01,1.858497411012649536e-01,1.845270544290542603e-01,1.835512667894363403e-01,1.828713566064834595e-01,1.823427975177764893e-01,1.818618178367614746e-01,1.814634352922439575e-01,1.810791641473770142e-01,1.804640293121337891e-01,1.795632243156433105e-01,1.786681115627288818e-01,1.777971237897872925e-01,1.763049364089965820e-01,1.744840890169143677e-01,1.733264625072479248e-01,1.721412539482116699e-01,1.709548234939575195e-01,1.689020097255706787e-01,1.668241173028945923e-01,1.653876751661300659e-01,1.649808287620544434e-01,1.649568229913711548e-01,1.647651642560958862e-01,1.646742820739746094e-01,1.645949333906173706e-01,1.645624190568923950e-01,1.645613163709640503e-01,1.645854860544204712e-01,1.646283715963363647e-01,1.646336168050765991e-01,1.646403372287750244e-01,1.643912941217422485e-01,1.627950817346572876e-01,1.593823879957199097e-01,1.567440032958984375e-01,1.562228351831436157e-01,1.560469269752502441e-01,1.561514735221862793e-01,1.562893837690353394e-01,1.563815176486968994e-01,1.564680039882659912e-01,1.565642654895782471e-01,1.566837430000305176e-01,1.568501740694046021e-01,1.570454686880111694e-01,1.572287380695343018e-01,1.574658453464508057e-01,1.577083468437194824e-01,1.579315364360809326e-01,1.581541448831558228e-01,1.583727896213531494e-01
2.516340613365173340e-01,2.517158985137939453e-01,2.517169713973999023e-01,2.517491281032562256e-01,2.518244981765747070e-01,2.518984079360961914e-01,2.519683241844177246e-01,2.520478069782257080e-01,2.521260976791381836e-01,2.521637082099914551e-01,2.521772086620330811e-01,2.521750628948211670e-01,2.521593570709228516e-01,2.521070241928100586e-01,2.520120441913604736e-01,2.518864274024963379e-01,2.517723143100738525e-01,2.516101300716400146e-01,2.514986395835876465e-01,2.513765692710876465e-01,2.512096762657165527e-01,2.511186003684997559e-01,2.509855031967163086e-01,2.509100437164306641e-01,2.508438825607299805e-01,2.507545948028564453e-01,2.506785690784454346e-01,2.506480216979980469e-01,2.505542933940887451e-01,2.505190372467041016e-01,2.503753900527954102e-01,2.500110566616058350e-01,2.486025243997573853e-01,2.464949935674667358e-01,2.435982823371887207e-01,2.402319312095642090e-01,2.370333671569824219e-01,2.340894341468811035e-01,2.317604124546051025e-01,2.296233028173446655e-01,2.276307791471481323e-01,2.258477360010147095e-01,2.241149693727493286e-01,2.224894165992736816e-01,2.209654599428176880e-01,2.195059508085250854e-01,2.180694639682769775e-01,2.166672945022583008e-01,2.152354270219802856e-01,2.137525826692581177e-01,2.122978121042251587e-01,2.108660638332366943e-01,2.094787657260894775e-01,2.081091552972793579e-01,2.068113982677459717e-01,2.055854946374893188e-01,2.043180763721466064e-01,2.030539065599441528e-01,2.016820311546325684e-01,2.003091424703598022e-01,1.989997774362564087e-01,1.977375894784927368e-01,1.967377364635467529e-01,1.960733383893966675e-01,1.953459978103637695e-01,1.942024081945419312e-01,1.925320923328399658e-01,1.906227767467498779e-01,1.885661780834197998e-01,1.863723099231719971e-01,1.846816092729568481e-01,1.835252791643142700e-01,1.827317476272583008e-01,1.821509897708892822e-01,1.817425191402435303e-01,1.812125146389007568e-01,1.806108206510543823e-01,1.798188835382461548e-01,1.788468807935714722e-01,1.780960708856582642e-01,1.774241626262664795e-01,1.765405386686325073e-01,1.754728257656097412e-01,1.741449683904647827e-01,1.722907423973083496e-01,1.697339415550231934e-01,1.671535819768905640e-01,1.655206829309463501e-01,1.651438325643539429e-01,1.652050614356994629e-01,1.651010364294052124e-01,1.650511026382446289e-01,1.649568080902099609e-01,1.649233549833297729e-01,1.649106293916702271e-01,1.649077981710433960e-01,1.649186313152313232e-01,1.649008393287658691e-01,1.649263352155685425e-01,1.647014170885086060e-01,1.629736721515655518e-01,1.595310270786285400e-01,1.568955034017562866e-01,1.564014405012130737e-01,1.561752110719680786e-01,1.562729030847549438e-01,1.563924551010131836e-01,1.564754396677017212e-01,1.565601229667663574e-01,1.566494256258010864e-01,1.567688286304473877e-01,1.569358259439468384e-01,1.571284830570220947e-01,1.573005914688110352e-01,1.575779765844345093e-01,1.578313261270523071e-01,1.580428779125213623e-01,1.582649052143096924e-01,1.584847271442413330e-01
2.502051293849945068e-01,2.502088248729705811e-01,2.502025067806243896e-01,2.502351701259613037e-01,2.502850890159606934e-01,2.503056228160858154e-01,2.503225207328796387e-01,2.503662407398223877e-01,2.504208981990814209e-01,2.504382729530334473e-01,2.504305243492126465e-01,2.504129111766815186e-01,2.503943145275115967e-01,2.503499388694763184e-01,2.502547800540924072e-01,2.501576244831085205e-01,2.500709593296051025e-01,2.499695122241973877e-01,2.499007731676101685e-01,2.498066425323486328e-01,2.496962398290634155e-01,2.495830804109573364e-01,2.494832277297973633e-01,2.494369298219680786e-01,2.493669092655181885e-01,2.493311166763305664e-01,2.492209374904632568e-01,2.491278201341629028e-01,2.490875422954559326e-01,2.489872276782989502e-01,2.489587962627410889e-01,2.488037496805191040e-01,2.483654916286468506e-01,2.473943233489990234e-01,2.456715106964111328e-01,2.429297119379043579e-01,2.394437342882156372e-01,2.359443306922912598e-01,2.330199480056762695e-01,2.305922359228134155e-01,2.285726964473724365e-01,2.267010957002639771e-01,2.249526828527450562e-01,2.233365625143051147e-01,2.217784970998764038e-01,2.203287035226821899e-01,2.188337892293930054e-01,2.173854708671569824e-01,2.159178256988525391e-01,2.144447118043899536e-01,2.129742950201034546e-01,2.114619463682174683e-01,2.099994421005249023e-01,2.085327208042144775e-01,2.071573436260223389e-01,2.058614343404769897e-01,2.046076357364654541e-01,2.034638524055480957e-01,2.022400796413421631e-01,2.008307874202728271e-01,1.994764506816864014e-01,1.981607973575592041e-01,1.970605701208114624e-01,1.961701959371566772e-01,1.953611522912979126e-01,1.946863830089569092e-01,1.936478167772293091e-01,1.921289116144180298e-01,1.905305832624435425e-01,1.886330395936965942e-01,1.867180764675140381e-01,1.849607676267623901e-01,1.835977435111999512e-01,1.826373040676116943e-01,1.819766163825988770e-01,1.813840270042419434e-01,1.806927025318145752e-01,1.799559295177459717e-01,1.791604012250900269e-01,1.783955097198486328e-01,1.777932196855545044e-01,1.772966086864471436e-01,1.768518537282943726e-01,1.764105111360549927e-01,1.750878095626831055e-01,1.727479845285415649e-01,1.687197834253311157e-01,1.659406274557113647e-01,1.656523644924163818e-01,1.656205207109451294e-01,1.655277311801910400e-01,1.654985994100570679e-01,1.654104143381118774e-01,1.653463095426559448e-01,1.652775257825851440e-01,1.652178615331649780e-01,1.651921868324279785e-01,1.651772707700729370e-01,1.651969850063323975e-01,1.649612188339233398e-01,1.630542725324630737e-01,1.595781445503234863e-01,1.569638252258300781e-01,1.565559059381484985e-01,1.563628911972045898e-01,1.564279496669769287e-01,1.565137952566146851e-01,1.565829515457153320e-01,1.566536426544189453e-01,1.567386090755462646e-01,1.568556278944015503e-01,1.570217609405517578e-01,1.572110503911972046e-01,1.573849320411682129e-01,1.576804667711257935e-01,1.579584330320358276e-01,1.581503748893737793e-01,1.583684384822845459e-01,1.585871577262878418e-01
2.487560063600540161e-01,2.487268000841140747e-01,2.486947774887084961e-01,2.486966252326965332e-01,2.487105876207351685e-01,2.486894726753234863e-01,2.486588358879089355e-01,2.486440539360046387e-01,2.486738562583923340e-01,2.486880123615264893e-01,2.486890852451324463e-01,2.486846596002578735e-01,2.486744821071624756e-01,2.486312091350555420e-01,2.485241889953613281e-01,2.484369874000549316e-01,2.483617812395095825e-01,2.483001947402954102e-01,2.482748776674270630e-01,2.482257038354873657e-01,2.481562048196792603e-01,2.480343729257583618e-01,2.479413002729415894e-01,2.479138672351837158e-01,2.478924989700317383e-01,2.478579878807067871e-01,2.477541714906692505e-01,2.476404160261154175e-01,2.474364191293716431e-01,2.473606765270233154e-01,2.473198324441909790e-01,2.472768276929855347e-01,2.471202015876770020e-01,2.468457072973251343e-01,2.461854219436645508e-01,2.446639239788055420e-01,2.419640123844146729e-01,2.384504526853561401e-01,2.351181358098983765e-01,2.318734079599380493e-01,2.295067310333251953e-01,2.274497151374816895e-01,2.256824374198913574e-01,2.241139709949493408e-01,2.225906997919082642e-01,2.210704386234283447e-01,2.195542901754379272e-01,2.180900573730468750e-01,2.166400700807571411e-01,2.151810824871063232e-01,2.136614322662353516e-01,2.121433317661285400e-01,2.106654047966003418e-01,2.092303186655044556e-01,2.077699601650238037e-01,2.063836008310317993e-01,2.050121724605560303e-01,2.037347555160522461e-01,2.025278508663177490e-01,2.012846916913986206e-01,1.999322474002838135e-01,1.985142827033996582e-01,1.972940862178802490e-01,1.962695121765136719e-01,1.953827142715454102e-01,1.945061236619949341e-01,1.936135292053222656e-01,1.924783885478973389e-01,1.912098377943038940e-01,1.896181851625442505e-01,1.879244595766067505e-01,1.861647963523864746e-01,1.846050769090652466e-01,1.833603382110595703e-01,1.824670881032943726e-01,1.816769540309906006e-01,1.808678507804870605e-01,1.800469011068344116e-01,1.793215721845626831e-01,1.786728799343109131e-01,1.781414002180099487e-01,1.776872426271438599e-01,1.772833615541458130e-01,1.768599450588226318e-01,1.764121055603027344e-01,1.753157079219818115e-01,1.720174103975296021e-01,1.670268625020980835e-01,1.663318723440170288e-01,1.661979258060455322e-01,1.660684198141098022e-01,1.660222858190536499e-01,1.659417003393173218e-01,1.658338606357574463e-01,1.656712144613265991e-01,1.655528098344802856e-01,1.654830574989318848e-01,1.654562652111053467e-01,1.654718667268753052e-01,1.651874184608459473e-01,1.631482690572738647e-01,1.594932526350021362e-01,1.568490117788314819e-01,1.566352099180221558e-01,1.565174162387847900e-01,1.565657258033752441e-01,1.566378921270370483e-01,1.567077338695526123e-01,1.567700058221817017e-01,1.568542867898941040e-01,1.569742113351821899e-01,1.571360826492309570e-01,1.573093980550765991e-01,1.575005799531936646e-01,1.577797383069992065e-01,1.580883115530014038e-01,1.582686305046081543e-01,1.584851592779159546e-01,1.587043255567550659e-01
2.472790628671646118e-01,2.472226917743682861e-01,2.471881210803985596e-01,2.472036033868789673e-01,2.472068965435028076e-01,2.471610903739929199e-01,2.471138983964920044e-01,2.470886707305908203e-01,2.471158355474472046e-01,2.471374571323394775e-01,2.471110820770263672e-01,2.470668405294418335e-01,2.470320016145706177e-01,2.469757944345474243e-01,2.468703091144561768e-01,2.468022406101226807e-01,2.467435896396636963e-01,2.467053085565567017e-01,2.467081993818283081e-01,2.466786652803421021e-01,2.466149032115936279e-01,2.465051859617233276e-01,2.464132159948348999e-01,2.463241666555404663e-01,2.462211996316909790e-01,2.461231350898742676e-01,2.460259497165679932e-01,2.459011226892471313e-01,2.457874864339828491e-01,2.457967996597290039e-01,2.457510232925415039e-01,2.456955462694168091e-01,2.456464320421218872e-01,2.455335855484008789e-01,2.452466338872909546e-01,2.447278350591659546e-01,2.433097809553146362e-01,2.409362494945526123e-01,2.377596199512481689e-01,2.342437356710433960e-01,2.309849411249160767e-01,2.284775227308273315e-01,2.265005558729171753e-01,2.248907238245010376e-01,2.234234809875488281e-01,2.218685299158096313e-01,2.202895134687423706e-01,2.187953293323516846e-01,2.173241227865219116e-01,2.158433943986892700e-01,2.143718153238296509e-01,2.128699272871017456e-01,2.114368826150894165e-01,2.100077718496322632e-01,2.085019797086715698e-01,2.070173621177673340e-01,2.055448740720748901e-01,2.041106969118118286e-01,2.027746140956878662e-01,2.015549242496490479e-01,2.003302276134490967e-01,1.989951133728027344e-01,1.976496577262878418e-01,1.964595913887023926e-01,1.954452991485595703e-01,1.945221573114395142e-01,1.936769932508468628e-01,1.927189528942108154e-01,1.916853487491607666e-01,1.905468553304672241e-01,1.891241520643234253e-01,1.874942332506179810e-01,1.859000325202941895e-01,1.843699812889099121e-01,1.830618977546691895e-01,1.821431666612625122e-01,1.811964064836502075e-01,1.802948117256164551e-01,1.795641034841537476e-01,1.789097040891647339e-01,1.783786863088607788e-01,1.779256165027618408e-01,1.775411665439605713e-01,1.772101968526840210e-01,1.767413616180419922e-01,1.761982738971710205e-01,1.739297956228256226e-01,1.681926846504211426e-01,1.669109761714935303e-01,1.667310148477554321e-01,1.666368097066879272e-01,1.665855795145034790e-01,1.664586216211318970e-01,1.662862151861190796e-01,1.661218702793121338e-01,1.659943759441375732e-01,1.658952385187149048e-01,1.658424437046051025e-01,1.658139973878860474e-01,1.655261963605880737e-01,1.633427590131759644e-01,1.593277305364608765e-01,1.568766385316848755e-01,1.566925048828125000e-01,1.566261202096939087e-01,1.566774547100067139e-01,1.567443609237670898e-01,1.568178385496139526e-01,1.568821072578430176e-01,1.569664478302001953e-01,1.570874452590942383e-01,1.572506427764892578e-01,1.574073582887649536e-01,1.576120257377624512e-01,1.578911542892456055e-01,1.582053750753402710e-01,1.583977192640304565e-01,1.586186885833740234e-01,1.588461399078369141e-01
2.457341998815536499e-01,2.457105070352554321e-01,2.456806600093841553e-01,2.456594854593276978e-01,2.456442862749099731e-01,2.455968707799911499e-01,2.455672323703765869e-01,2.455545812845230103e-01,2.455647885799407959e-01,2.455921918153762817e-01,2.455577403306961060e-01,2.455011457204818726e-01,2.454446256160736084e-01,2.453869283199310303e-01,2.452931106090545654e-01,2.452130317687988281e-01,2.451523393392562866e-01,2.451215982437133789e-01,2.451163828372955322e-01,2.450643926858901978e-01,2.449823766946792603e-01,2.448491603136062622e-01,2.447487860918045044e-01,2.446601837873458862e-01,2.445453256368637085e-01,2.444350421428680420e-01,2.443581670522689819e-01,2.443050146102905273e-01,2.442658692598342896e-01,2.443073838949203491e-01,2.441771030426025391e-01,2.441334277391433716e-01,2.441709488630294800e-01,2.441263049840927124e-01,2.439609169960021973e-01,2.436884194612503052e-01,2.433069646358489990e-01,2.422781586647033691e-01,2.404590845108032227e-01,2.376503050327301025e-01,2.339221388101577759e-01,2.304842174053192139e-01,2.278811484575271606e-01,2.259399741888046265e-01,2.242799699306488037e-01,2.226364016532897949e-01,2.211256176233291626e-01,2.195855528116226196e-01,2.181037664413452148e-01,2.166216969490051270e-01,2.151938229799270630e-01,2.137814313173294067e-01,2.123681455850601196e-01,2.108809351921081543e-01,2.093346863985061646e-01,2.078044563531875610e-01,2.062340676784515381e-01,2.046909034252166748e-01,2.032088786363601685e-01,2.018090635538101196e-01,2.005449086427688599e-01,1.992880105972290039e-01,1.980000287294387817e-01,1.967777758836746216e-01,1.955896019935607910e-01,1.944977939128875732e-01,1.935054659843444824e-01,1.925530284643173218e-01,1.916046142578125000e-01,1.906979233026504517e-01,1.898313611745834351e-01,1.888030916452407837e-01,1.876328289508819580e-01,1.861545145511627197e-01,1.845793128013610840e-01,1.830835044384002686e-01,1.818016618490219116e-01,1.807811856269836426e-01,1.799511462450027466e-01,1.792028844356536865e-01,1.786365061998367310e-01,1.781551241874694824e-01,1.777541637420654297e-01,1.773957163095474243e-01,1.767538934946060181e-01,1.762883961200714111e-01,1.747303456068038940e-01,1.688149124383926392e-01,1.673674434423446655e-01,1.673458516597747803e-01,1.672712713479995728e-01,1.671985089778900146e-01,1.670505404472351074e-01,1.668502837419509888e-01,1.665908098220825195e-01,1.664689034223556519e-01,1.664083749055862427e-01,1.664931923151016235e-01,1.664413362741470337e-01,1.660859137773513794e-01,1.639840751886367798e-01,1.595136523246765137e-01,1.569889187812805176e-01,1.567764580249786377e-01,1.567405313253402710e-01,1.567955017089843750e-01,1.568568646907806396e-01,1.569413840770721436e-01,1.570042222738265991e-01,1.570912450551986694e-01,1.572167873382568359e-01,1.573815643787384033e-01,1.575340330600738525e-01,1.577428281307220459e-01,1.580380201339721680e-01,1.583472937345504761e-01,1.585495322942733765e-01,1.587708741426467896e-01,1.590024381875991821e-01
2.441321462392807007e-01,2.441483438014984131e-01,2.441518753767013550e-01,2.441276013851165771e-01,2.440818250179290771e-01,2.440244704484939575e-01,2.439839988946914673e-01,2.439470738172531128e-01,2.439213395118713379e-01,2.439638972282409668e-01,2.439731061458587646e-01,2.439476400613784790e-01,2.438925206661224365e-01,2.438258528709411621e-01,2.437374144792556763e-01,2.436272203922271729e-01,2.435222417116165161e-01,2.434520572423934937e-01,2.434177547693252563e-01,2.433508932590484619e-01,2.432467937469482422e-01,2.431510835886001587e-01,2.430884689092636108e-01,2.430271059274673462e-01,2.429689168930053711e-01,2.429052144289016724e-01,2.428490072488784790e-01,2.427539974451065063e-01,2.426996976137161255e-01,2.427306473255157471e-01,2.426712363958358765e-01,2.426616698503494263e-01,2.426729947328567505e-01,2.426986992359161377e-01,2.426843494176864624e-01,2.425166964530944824e-01,2.423049807548522949e-01,2.420526891946792603e-01,2.414004802703857422e-01,2.397450357675552368e-01,2.370718717575073242e-01,2.332162261009216309e-01,2.299867570400238037e-01,2.272213548421859741e-01,2.251667380332946777e-01,2.234939187765121460e-01,2.219947874546051025e-01,2.205214351415634155e-01,2.190580964088439941e-01,2.175645083189010620e-01,2.161510586738586426e-01,2.147466391324996948e-01,2.133360356092453003e-01,2.118532955646514893e-01,2.102834880352020264e-01,2.086968421936035156e-01,2.070672512054443359e-01,2.054205089807510376e-01,2.038112282752990723e-01,2.022769898176193237e-01,2.008510679006576538e-01,1.994724720716476440e-01,1.981731504201889038e-01,1.969939172267913818e-01,1.958625018596649170e-01,1.946813166141510010e-01,1.935594677925109863e-01,1.925197243690490723e-01,1.915486454963684082e-01,1.907083392143249512e-01,1.899340450763702393e-01,1.891280114650726318e-01,1.884562522172927856e-01,1.876115202903747559e-01,1.865104585886001587e-01,1.850486844778060913e-01,1.834591031074523926e-01,1.818967461585998535e-01,1.807145625352859497e-01,1.797497719526290894e-01,1.790323555469512939e-01,1.784564703702926636e-01,1.779730618000030518e-01,1.775174587965011597e-01,1.768089532852172852e-01,1.761014014482498169e-01,1.745682954788208008e-01,1.699125468730926514e-01,1.682352870702743530e-01,1.679309755563735962e-01,1.677529364824295044e-01,1.676075309514999390e-01,1.674479991197586060e-01,1.673614233732223511e-01,1.671317517757415771e-01,1.670464128255844116e-01,1.673271656036376953e-01,1.676433831453323364e-01,1.678466349840164185e-01,1.674373298883438110e-01,1.653310805559158325e-01,1.599905192852020264e-01,1.570688337087631226e-01,1.567959934473037720e-01,1.567946821451187134e-01,1.568958461284637451e-01,1.569692045450210571e-01,1.570588499307632446e-01,1.571283191442489624e-01,1.572120636701583862e-01,1.573305577039718628e-01,1.574945151805877686e-01,1.576480120420455933e-01,1.578490287065505981e-01,1.581867337226867676e-01,1.584838777780532837e-01,1.586904674768447876e-01,1.589103043079376221e-01,1.591436415910720825e-01
